ply
format ascii 1.0
comment pointcloud saved from 3DCamera
element vertex 763
property float x
property float y
property float z
property float nx
property float ny
property float nz
property uchar red
property uchar green
property uchar blue
end_header
205.032 -123.733 732.8 -0.146334 -0.909972 -0.38799 157 142 137 
208.34 -125.269 741.9 -0.435928 -0.866514 -0.243147 169 154 149 
114.201 -126.605 754.4 0 0 0 126 103 97 
117.737 -127.075 757.2 -0.78782 -0.551064 -0.275078 136 113 107 
118.233 -126.773 755.4 -0.337967 -0.821184 -0.459821 138 115 109 
118.93 -126.689 754.9 -0.890527 -0.33603 -0.30667 140 117 111 
119.198 -126.152 751.7 -0.884186 -0.281044 -0.373136 143 119 115 
120.178 -126.37 753 0.21758 -0.830752 -0.512357 141 117 113 
120.486 -125.883 750.1 -0.892541 -0.416225 -0.173571 137 116 111 
120.917 -125.531 748 -0.374837 -0.861701 -0.342007 135 114 111 
121.571 -125.413 747.3 0.227483 -0.879647 -0.417699 133 114 110 
122.601 -125.682 748.9 -0.928358 0.0345249 -0.370081 126 106 105 
122.925 -125.229 746.2 -0.983083 0.0813749 -0.164091 121 101 100 
123.261 -124.793 743.6 0.136553 -0.865911 -0.481199 123 105 103 
124.408 -125.179 745.9 0.414651 -0.807564 -0.41941 121 106 101 
125.225 -125.229 746.2 0.732943 -0.491708 -0.470126 104 90 89 
126.363 -125.598 748.4 -0.168614 0.134237 -0.976499 107 93 92 
126.13 -124.608 742.5 0.44096 0.512671 -0.736697 104 90 87 
127.183 -124.893 744.2 0.59929 0.599294 -0.530753 107 93 90 
127.948 -124.893 744.2 -0.532073 0.83014 -0.166634 106 92 89 
129.767 -125.917 750.3 -0.75048 -0.617333 -0.235968 104 90 87 
130.155 -125.548 748.1 -0.471594 0.468832 -0.746857 102 88 85 
130.679 -125.313 746.7 -0.800588 0.579031 -0.154216 104 90 87 
131.217 -125.095 745.4 -0.77169 0.633127 -0.060367 103 89 86 
131.469 -124.608 742.5 -0.630576 0.776113 -0.00472862 100 86 83 
132.036 -124.423 741.4 -0.78606 0.506954 -0.353705 99 86 80 
132.672 -124.306 740.7 -0.261238 -0.672521 -0.692437 96 83 77 
133.055 -123.953 738.6 -0.783665 0.345069 -0.516523 95 82 76 
133.995 -124.121 739.6 0.667207 0.258628 -0.698532 94 81 75 
134.937 -124.289 740.6 0.39094 -0.661564 -0.639921 93 80 74 
135.734 -124.323 740.8 0.260645 -0.834356 -0.485709 99 82 75 
136.919 -124.709 743.1 -0.41615 -0.624217 -0.66119 100 81 75 
137.071 -124.155 739.8 -0.957124 0.253001 -0.141084 100 81 75 
137.347 -123.718 737.2 -0.879913 -0.131525 -0.456568 100 81 75 
138.272 -123.87 738.1 0.149462 -0.776929 -0.61159 98 79 73 
138.993 -123.836 737.9 0.602824 -0.48784 -0.63136 99 80 74 
140.3 -124.323 740.8 0.754878 0.137301 -0.641333 101 81 74 
140.833 -124.121 739.6 -0.0359289 0.948288 -0.315372 102 82 75 
142.416 -124.843 743.9 0.405559 0.0397764 -0.913203 106 82 72 
142.545 -124.289 740.6 -0.861399 0.507587 -0.0186372 108 81 72 
143.17 -124.172 739.9 0.426158 0.465694 -0.775577 108 81 72 
144.144 -124.356 741 -0.0578595 0.961287 -0.269407 108 81 72 
144.28 -123.819 737.8 -0.892736 0.364098 -0.265434 110 83 74 
144.625 -123.467 735.7 -0.923828 -0.258942 -0.281942 112 83 77 
145.223 -123.333 734.9 0.126079 -0.88658 -0.445062 114 85 79 
146.772 -124.004 738.9 -0.723934 0.550187 -0.416191 115 86 80 
147.232 -123.752 737.4 -0.94512 0.0115301 -0.326521 115 85 75 
147.648 -123.467 735.7 0.522787 -0.608604 -0.596905 118 85 76 
149.372 -124.272 740.5 0.871701 -0.180821 -0.455456 120 87 78 
150.356 -124.457 741.6 0.0965067 0.970641 -0.220324 121 88 79 
150.547 -123.987 738.8 -0.718117 0.691578 -0.0776352 124 92 81 
150.733 -123.517 736 -0.526617 0.843916 -0.102377 126 94 83 
151.324 -123.383 735.2 -0.0189659 -0.409639 -0.912051 130 98 87 
152.162 -123.45 735.6 -0.165912 -0.881686 -0.441705 133 101 90 
152.814 -123.366 735.1 -0.317496 -0.740814 -0.591938 138 106 95 
153.673 -123.45 735.6 0.0793108 -0.677024 -0.731675 140 107 98 
154.597 -123.584 736.4 -0.709976 -0.0379158 -0.703205 144 111 102 
154.742 -123.098 733.5 -0.664163 0.742269 -0.0890232 147 114 105 
155.389 -123.014 733 0.689511 0.000484249 -0.724275 153 120 111 
156.441 -123.249 734.4 0.0198679 0.609629 -0.792438 154 121 112 
156.938 -123.047 733.2 -0.507859 0.85666 -0.0906301 157 124 115 
157.648 -123.014 733 -0.725659 0.611002 -0.31638 159 126 117 
158.077 -122.762 731.5 -0.515441 0.49459 -0.699786 164 131 124 
158.698 -122.661 730.9 0.000302849 0.74048 -0.672078 165 132 125 
159.711 -122.863 732.1 0.32734 -0.292892 -0.898367 166 133 126 
160.31 -122.745 731.4 -0.136182 0.782785 -0.607209 167 134 127 
161.149 -122.812 731.8 -0.0691104 0.934619 -0.348871 170 137 130 
161.989 -122.879 732.2 -0.222853 -0.0892399 -0.970759 170 137 130 
162.608 -122.779 731.6 0.155491 -0.662833 -0.732445 170 137 130 
163.203 -122.661 730.9 0.421865 -0.63765 -0.644541 170 137 130 
164.47 -123.047 733.2 0.512105 -0.600137 -0.614479 171 138 131 
165.314 -123.114 733.6 -0.957141 0.2548 -0.13769 171 138 131 
165.705 -122.846 732 0.340841 -0.0677968 -0.937673 170 137 128 
166.525 -122.896 732.3 -0.405228 0.849218 -0.338555 169 136 127 
167.072 -122.745 731.4 -0.722352 0.681926 -0.114824 165 132 123 
167.135 -122.242 728.4 -0.380546 -0.354897 -0.853951 164 131 122 
168.16 -122.443 729.6 0.372366 0.757225 -0.536614 162 129 120 
169.558 -122.913 732.4 0.53199 -0.533314 -0.657696 161 128 119 
170.17 -122.812 731.8 -0.0367697 -0.836503 -0.546728 152 122 112 
171.039 -122.896 732.3 0.183323 -0.821131 -0.540496 152 122 112 
171.768 -122.879 732.2 -0.578272 -0.67364 -0.46023 150 122 111 
171.884 -122.426 729.5 -0.282534 -0.60907 -0.741085 149 121 110 
172.799 -122.544 730.2 -0.391842 0.393816 -0.831486 147 119 108 
173.668 -122.628 730.7 0.721179 0.0235737 -0.692348 143 114 106 
175.23 -123.198 734.1 0.747603 -0.393042 -0.535357 141 114 107 
175.984 -123.198 734.1 -0.402363 -0.587874 -0.701789 140 113 106 
176.377 -122.947 732.6 -0.706713 0.117679 -0.697645 136 111 106 
177.154 -122.963 732.7 0.674295 0.52778 -0.516502 134 111 105 
178.489 -123.366 735.1 -0.0692504 0.934735 -0.348533 131 108 102 
179.001 -123.198 734.1 -0.920017 0.278463 -0.27573 129 106 100 
179.29 -122.879 732.2 -0.961113 -0.169606 -0.217936 120 97 91 
179.648 -122.611 730.6 -0.584147 -0.541023 -0.605034 119 96 90 
180.3 -122.544 730.2 0.567129 -0.488893 -0.662833 116 93 87 
181.323 -122.728 731.3 0.591584 -0.330898 -0.735211 114 91 85 
183.394 -123.618 736.6 -0.478353 -0.732086 -0.485005 100 80 73 
183.851 -123.416 735.4 -0.222176 -0.648286 -0.72826 99 79 72 
184.782 -123.534 736.1 -0.978861 0.114377 -0.169555 97 77 70 
184.278 -122.695 731.1 0.0451351 -0.860128 -0.508077 98 75 69 
185.864 -123.249 734.4 0.612544 -0.588325 -0.527885 96 73 67 
186.593 -123.232 734.3 0.815681 0.141279 -0.560985 95 72 66 
188.036 -123.685 737 0.194129 0.72574 -0.660012 95 70 65 
188.332 -123.383 735.2 -0.899325 0.214116 -0.381273 94 69 64 
188.933 -123.282 734.6 -0.575622 -0.218258 -0.78805 95 75 66 
189.559 -123.198 734.1 0.495061 -0.154502 -0.855011 96 78 66 
190.831 -123.534 736.1 0.647552 0.211877 -0.731973 100 82 70 
192.03 -123.819 737.8 0.594872 -0.177475 -0.783984 104 86 74 
193.493 -124.272 740.5 -0.708028 0.688792 0.15576 108 90 78 
193.284 -123.651 736.8 -0.969993 0.128656 -0.206302 108 90 78 
193.198 -123.114 733.6 -0.975724 0.154518 -0.1552 111 93 81 
193.819 -123.03 733.1 -0.8026 -0.321535 -0.502442 114 96 84 
194.333 -122.879 732.2 0.284063 -0.715108 -0.638693 113 97 84 
195.565 -123.181 734 0.670582 -0.519099 -0.529958 115 99 86 
197.416 -123.87 738.1 0.68153 -0.469762 -0.561107 119 102 92 
198.093 -123.819 737.8 -0.96006 0.277523 -0.035589 122 105 95 
197.746 -123.131 733.7 -0.944807 -0.228984 -0.23432 128 111 103 
198.203 -122.947 732.6 0.264762 -0.637715 -0.72334 129 112 104 
199.498 -123.282 734.6 0.678072 -0.388694 -0.623807 131 114 107 
200.798 -123.618 736.6 -0.361583 -0.709539 -0.604824 133 116 109 
200.597 -123.03 733.1 -0.969882 -0.24312 -0.0148884 135 117 113 
202.998 -124.037 739.1 0.743832 -0.114749 -0.658442 136 118 116 
203.95 -124.155 739.8 -0.827247 0.561701 0.0123928 138 120 118 
203.908 -123.668 736.9 -0.67366 0.737569 0.0466398 138 120 118 
204.359 -123.484 735.8 0.476231 0.730117 -0.490034 141 123 121 
205.06 -123.45 735.6 0.031022 0.942164 -0.333714 142 124 122 
206.543 -123.886 738.2 0.0182859 0.945849 -0.324092 143 125 123 
207.498 -124.004 738.9 -0.669952 -0.681257 -0.295049 145 127 125 
207.834 -123.752 737.4 -0.504275 -0.822344 -0.263549 144 129 122 
208.252 -123.551 736.2 0.683937 -0.476869 -0.552111 154 140 131 
210.399 -124.373 741.1 0.911043 -0.0554351 -0.408567 186 172 163 
115.388 -126.28 757.1 -0.406001 -0.866046 -0.291767 129 106 100 
115.951 -126.047 755.7 -0.371083 -0.880153 -0.29602 132 109 103 
116.156 -125.43 752 0.749612 -0.535346 -0.389212 130 107 101 
117.472 -126.014 755.5 0.0419079 -0.80355 -0.59376 130 107 101 
117.873 -125.613 753.1 -0.783252 -0.534948 -0.316775 131 108 102 
118.709 -125.68 753.5 -0.0127982 -0.895789 -0.444296 113 94 88 
119.357 -125.547 752.7 -0.930378 -0.21265 -0.298626 103 89 86 
119.715 -125.113 750.1 -0.345281 -0.315613 -0.883838 98 87 85 
120.084 -124.696 747.6 -0.584872 -0.765054 -0.269475 94 83 81 
120.545 -124.379 745.7 -0.655325 -0.714318 -0.245559 91 80 78 
120.904 -123.962 743.2 0.114148 -0.920339 -0.374093 93 82 80 
122.404 -124.713 747.7 0.0327619 -0.65301 -0.75664 93 82 80 
122.794 -124.329 745.4 -0.995048 0.0228484 -0.0967296 95 84 82 
123.128 -123.895 742.8 -0.752715 -0.424936 -0.502842 96 85 83 
123.975 -123.979 743.3 0.545517 -0.59746 -0.587753 96 84 84 
124.906 -124.145 744.3 0.718887 -0.508398 -0.47406 95 85 84 
126.312 -124.779 748.1 0.486122 -0.520915 -0.701665 94 84 83 
126.588 -124.296 745.2 -0.545403 0.796965 -0.259581 93 83 81 
127.456 -124.396 745.8 0.36936 0.711288 -0.598033 92 82 80 
128.446 -124.612 747.1 -0.633289 0.496188 -0.593921 91 81 79 
128.574 -123.995 743.4 -0.372689 0.907495 -0.193791 89 80 75 
129.842 -124.479 746.3 0.000188483 -0.770775 -0.637108 87 78 73 
130.784 -124.646 747.3 -0.431781 -0.682964 -0.589174 92 78 75 
131.023 -124.145 744.3 -0.464013 -0.777388 -0.424688 92 78 75 
131.77 -124.129 744.2 -0.690821 -0.565043 -0.451102 93 79 76 
132.214 -123.829 742.4 -0.958424 0.254506 -0.129035 94 80 77 
132.278 -123.178 738.5 -0.453522 0.566542 -0.688003 85 71 68 
133.433 -123.545 740.7 0.385199 0.846536 -0.367421 84 70 67 
134.212 -123.562 740.8 -0.00861781 0.973258 -0.229554 82 68 65 
135.064 -123.645 741.3 -0.69662 0.566076 -0.440771 81 67 64 
135.404 -123.261 739 -0.507837 -0.215013 -0.834189 79 64 59 
136.256 -123.345 739.5 0.200468 -0.773276 -0.601546 81 66 61 
137.034 -123.361 739.6 -0.306655 -0.749631 -0.586529 85 70 65 
137.85 -123.412 739.9 -0.732526 0.636732 -0.240786 89 74 69 
138.123 -122.978 737.3 -0.605226 0.4162 -0.678586 88 73 68 
138.899 -122.995 737.4 0.734446 0.0175131 -0.678442 88 73 68 
140.054 -123.345 739.5 0.848717 -0.0162573 -0.528597 89 74 69 
141.214 -123.695 741.6 0.590774 -0.275607 -0.758306 89 74 69 
142.205 -123.895 742.8 0.381448 -0.762429 -0.522684 93 73 64 
142.988 -123.912 742.9 -0.772387 -0.535575 -0.341435 96 74 63 
143.112 -123.361 739.6 -0.96016 0.138399 -0.242774 96 73 65 
143.658 -123.178 738.5 -0.214097 -0.48086 -0.850256 97 74 66 
143.361 -122.277 733.1 0 0 0 99 74 69 
145.215 -123.211 738.7 -0.722687 0.689022 0.054509 100 75 70 
145.262 -122.611 735.1 -0.639846 0.768407 0.0121092 105 77 73 
147.169 -123.578 740.9 -0.993612 0.0409388 -0.105163 107 79 75 
147.212 -122.978 737.3 -0.954041 0.299235 -0.0162625 109 80 74 
147.367 -122.477 734.3 -0.776679 -0.132012 -0.615908 110 81 73 
148.525 -122.811 736.3 0.691724 -0.585245 -0.423092 112 82 74 
149.869 -123.295 739.2 0.386721 -0.745374 -0.543014 114 84 76 
149.956 -122.744 735.9 -0.379574 -0.433471 -0.817329 116 86 76 
151.183 -123.128 738.2 0.446464 -0.636111 -0.629311 120 87 78 
152.106 -123.261 739 -0.496713 0.831282 -0.249492 123 91 80 
152.141 -122.678 735.5 -0.685911 0.726457 -0.0422588 126 94 83 
152.71 -122.528 734.6 -0.576549 0.461153 -0.674485 131 98 91 
153.548 -122.594 735 -0.274087 0.205177 -0.939563 134 101 94 
153.925 -122.294 733.2 -0.0197716 -0.317475 -0.948061 140 107 100 
155.079 -122.611 735.1 -0.117855 -0.354763 -0.927498 145 112 105 
155.813 -122.594 735 -0.160468 0.183167 -0.969897 146 113 106 
156.611 -122.628 735.2 0.772799 -0.107857 -0.625418 149 116 109 
157.709 -122.894 736.8 -0.363683 0.872773 -0.325581 154 121 114 
158.014 -122.544 734.7 -0.830976 0.556197 -0.0111107 158 125 118 
158.12 -122.044 731.7 -0.453707 0.474315 -0.754437 160 127 120 
159.393 -122.444 734.1 0.150655 0.603573 -0.782945 162 129 122 
159.885 -122.244 732.9 0.105201 0.821119 -0.560979 165 132 125 
160.507 -122.144 732.3 0.331997 0.846594 -0.416002 168 135 128 
161.832 -122.578 734.9 -0.270135 0.887474 -0.373387 167 134 127 
162.011 -122.144 732.3 -0.771281 0.604507 -0.199242 167 134 127 
162.386 -121.86 730.6 -0.596829 0.188051 -0.78002 167 134 127 
163.605 -122.211 732.7 -0.0443994 0.921304 -0.386299 167 134 127 
164.448 -122.277 733.1 0.600042 0.342957 -0.722724 170 137 132 
165.314 -122.361 733.6 -0.982642 -0.0178986 -0.184645 169 136 131 
165.139 -121.677 729.5 -0.859232 -0.400658 -0.318108 168 135 128 
167.298 -122.711 735.7 0.361415 0.873949 -0.324949 167 134 127 
167.894 -122.594 735 -0.343061 0.938568 -0.0374154 166 133 124 
168.535 -122.511 734.5 -0.753085 0.62822 -0.195454 163 130 121 
168.943 -122.261 733 -0.509074 0.850657 -0.131251 158 126 115 
169.141 -121.86 730.6 -0.435484 0.781815 -0.446228 154 122 111 
169.915 -121.877 730.7 -0.169782 -0.23377 -0.957353 153 121 110 
170.642 -121.86 730.6 -0.0556562 -0.682767 -0.728513 152 120 109 
171.58 -121.994 731.4 0.530458 -0.558867 -0.637402 147 117 107 
172.355 -122.01 731.5 0.451208 0.782773 -0.428576 144 114 104 
173.698 -122.427 734 0.124619 0.975906 -0.179104 140 111 103 
174.072 -122.161 732.4 -0.279068 0.956107 -0.0893285 139 110 102 
174.705 -122.077 731.9 0.508889 0.366415 -0.778955 136 109 102 
175.673 -122.227 732.8 0.285167 -0.527349 -0.800364 134 107 100 
176.449 -122.244 732.9 0.443228 0.177383 -0.878683 133 108 103 
177.444 -122.411 733.9 0.748175 0.242654 -0.617538 130 107 101 
178.902 -122.894 736.8 0.354299 0.462559 -0.812719 125 102 96 
178.684 -122.227 732.8 -0.855136 0.517924 0.0222872 121 98 92 
179.02 -121.944 731.1 -0.917824 0.396321 -0.022981 110 87 81 
179.132 -121.51 728.5 -0.386631 0.719806 -0.576537 108 85 79 
180.226 -121.744 729.9 0.491517 0.341796 -0.800991 106 83 77 
181.472 -122.077 731.9 0.705298 0.421873 -0.569717 103 80 74 
182.298 -122.127 732.2 0.142855 0.934438 -0.326217 86 66 59 
183.251 -122.261 733 -0.86591 0.337633 -0.369058 87 67 60 
183.225 -121.744 729.9 -0.668391 0.732775 0.127651 88 68 61 
184.252 -121.927 731 0 -0.129207 -0.991618 92 69 63 
185.003 -121.927 731 0.737506 -0.47725 -0.477826 90 67 61 
186.669 -122.528 734.6 0.786481 -0.370148 -0.494407 91 66 61 
188.521 -123.245 738.9 0.665152 -0.409266 -0.624559 90 65 60 
188.563 -122.778 736.1 -0.75138 0.637955 -0.168646 89 64 59 
189.19 -122.694 735.6 -0.486932 0.849546 -0.202902 89 69 60 
189.714 -122.544 734.7 -0.161517 0.623145 -0.765247 90 72 60 
190.909 -122.828 736.4 0.0964181 -0.647089 -0.756293 93 75 63 
191.223 -122.544 734.7 -0.292495 -0.805839 -0.51485 95 77 65 
191.612 -122.311 733.3 0.325086 0.654674 -0.682438 99 81 69 
192.654 -122.494 734.4 0.436516 0.775754 -0.455697 101 83 71 
193.777 -122.728 735.8 -0.47488 0.608947 -0.635353 104 86 74 
194.454 -122.678 735.5 -0.176332 0.916487 -0.359107 108 90 78 
194.44 -122.194 732.6 -0.0303364 0.949673 -0.311771 110 94 81 
195.672 -122.494 734.4 0.259171 0.873724 -0.411626 112 96 83 
196.292 -122.411 733.9 0.635564 -0.464185 -0.61692 116 99 89 
197.61 -122.761 736 -0.390546 -0.771272 -0.502606 119 102 92 
197.558 -122.261 733 -0.970119 0.129355 -0.20527 124 107 99 
198.311 -122.261 733 0.337661 0.742608 -0.578376 126 109 101 
199.498 -122.528 734.6 0.638347 0.46756 -0.611474 129 112 105 
200.226 -122.511 734.5 -0.566969 0.378384 -0.731691 132 115 108 
200.488 -122.211 732.7 -0.879371 0.441553 -0.178149 134 116 112 
202.778 -123.145 738.3 0.73344 -0.397944 -0.551096 134 116 112 
204.061 -123.462 740.2 0.367218 -0.269857 -0.890128 135 117 113 
203.991 -122.961 737.2 -0.948196 -0.0448956 -0.314496 135 117 113 
204.387 -122.744 735.9 0.38916 -0.24354 -0.888393 136 118 114 
206.203 -123.378 739.7 0.86305 -8.83187e-07 -0.505118 139 121 117 
207.55 -123.728 741.8 -0.656517 0.738986 0.151276 141 123 119 
207.413 -123.195 738.6 -0.912867 -0.342514 -0.222168 141 123 119 
207.27 -122.661 735.4 -0.885434 -0.270565 -0.37789 147 130 123 
207.601 -122.411 733.9 -0.969027 0.0225228 -0.245925 152 135 127 
210.314 -123.562 740.8 0.834358 0.204065 -0.512059 166 149 141 
113.078 -126.398 762.5 0 0 0 113 94 87 
114.915 -124.989 754 -0.703125 -0.629951 -0.329813 116 99 89 
115.444 -124.724 752.4 -0.699387 -0.645281 -0.307361 115 98 90 
115.862 -124.342 750.1 0.755116 -0.346742 -0.556391 117 100 92 
117.068 -124.806 752.9 0.77306 -0.444901 -0.452151 113 96 89 
118.092 -125.072 754.5 -0.925632 0.272813 -0.262256 106 89 82 
118.142 -124.309 749.9 -0.928444 0.112042 -0.354172 100 83 76 
119.087 -124.491 751 0.0258796 -0.70205 -0.711657 92 78 75 
119.779 -124.409 750.5 -0.881929 0.0800327 -0.464539 87 73 70 
120.983 -124.856 753.2 0.353196 -0.774466 -0.524839 86 72 69 
121.579 -124.674 752.1 -0.453798 -0.842778 -0.289468 93 79 76 
121.815 -124.127 748.8 -0.724765 -0.415707 -0.549458 87 73 70 
122.535 -124.077 748.5 -0.888613 0.193013 -0.416068 89 75 72 
123.09 -123.862 747.2 -0.850831 0.523358 -0.0467101 91 77 74 
123.062 -123.066 742.4 -0.764521 0.64437 -0.0172024 93 79 76 
123.925 -123.165 743 0.661771 0.389313 -0.640699 94 82 82 
124.856 -123.331 744 0.804748 0.170951 -0.568469 93 81 81 
126.025 -123.729 746.4 0.772797 -0.340776 -0.535403 92 80 80 
126.826 -123.762 746.6 -0.580478 0.200721 -0.789149 91 80 78 
127.644 -123.812 746.9 -0.938594 -0.0219315 -0.344325 86 75 73 
127.913 -123.331 744 -0.199414 -0.881525 -0.427958 85 74 70 
128.868 -123.513 745.1 0.252037 -0.816307 -0.519731 83 72 68 
129.929 -123.795 746.8 0.0926278 -0.738439 -0.667928 82 71 67 
130.224 -123.348 744.1 -0.830901 -0.428137 -0.355391 87 73 70 
130.477 -122.867 741.2 -0.801354 0.322032 -0.50411 86 72 69 
131.203 -122.834 741 0.214012 -0.521066 -0.82625 86 72 69 
131.983 -122.85 741.1 -0.142899 0.810497 -0.568044 86 72 69 
132.69 -122.801 740.8 -0.0624124 0.991785 -0.111655 80 66 63 
133.757 -123.082 742.5 0.485476 0.834049 -0.262059 79 65 62 
134.792 -123.331 744 -0.134071 0.965182 -0.224609 76 62 59 
135.137 -122.95 741.7 -0.556962 0.828998 -0.0505561 74 60 57 
135.496 -122.585 739.5 -0.39366 0.914046 -0.0977276 71 56 51 
136.403 -122.718 740.3 0.258423 0.910166 -0.323754 74 59 54 
136.904 -122.486 738.9 -0.370949 0.806162 -0.460977 79 64 59 
137.626 -122.453 738.7 -0.304588 0.92875 -0.211305 84 69 64 
139.715 -123.629 745.8 0 0 0 81 66 61 
140.104 -123.298 743.8 -0.420466 -0.867967 -0.264275 82 67 62 
140.414 -122.9 741.4 0.532027 0.269847 -0.802577 83 68 63 
141.042 -122.784 740.7 -0.130143 0.940731 -0.313189 85 70 65 
141.631 -122.635 739.8 -0.536743 -0.624372 -0.567509 88 70 60 
142.102 -122.386 738.3 -0.0658282 -0.909291 -0.410921 90 70 61 
143.035 -122.535 739.2 -0.260456 -0.863521 -0.43185 93 70 62 
143.755 -122.502 739 -0.237007 -0.0791849 -0.968276 93 70 62 
144.573 -122.552 739.3 0.0817736 0.930036 -0.358254 94 69 64 
145.431 -122.635 739.8 -0.395971 0.832785 -0.386881 96 71 66 
145.894 -122.386 738.3 -0.672603 0.725447 -0.146051 99 74 70 
146.653 -122.386 738.3 0.125236 -0.672836 -0.729115 104 76 73 
147.391 -122.37 738.2 -0.91985 -0.258639 -0.294927 105 76 70 
147.708 -122.005 736 -0.837839 0.517704 -0.173226 106 77 71 
148.263 -121.839 735 0.531387 -0.0483556 -0.845748 108 79 71 
149.484 -122.22 737.3 0.624942 -0.607565 -0.490217 110 80 72 
150.384 -122.336 738 -0.933189 0.165522 -0.319 114 84 74 
150.589 -121.889 735.3 0.279996 0.0400759 -0.959164 118 85 76 
151.612 -122.104 736.6 0.652847 -0.399509 -0.643571 121 88 79 
152.7 -122.37 738.2 -0.710624 0.585906 -0.389522 125 93 82 
153.084 -122.071 736.4 -0.782045 0.616154 -0.093589 127 94 87 
153.527 -121.823 734.9 0.27411 0.390512 -0.878842 131 98 91 
154.513 -122.005 736 -0.451056 0.826927 -0.335769 136 103 96 
155.037 -121.823 734.9 -0.537665 0.592089 -0.600289 141 108 101 
155.516 -121.607 733.6 -0.595031 0.266642 -0.758182 145 112 105 
156.185 -121.541 733.2 0.730709 -0.0786776 -0.678141 147 114 107 
157.559 -122.022 736.1 0.521507 -0.378335 -0.764783 152 119 112 
158.143 -121.889 735.3 -0.9765 -0.164062 -0.139754 156 123 116 
158.272 -121.408 732.4 -0.824864 -0.478389 -0.301235 159 126 119 
159.133 -121.491 732.9 0.116057 -0.861461 -0.494384 160 127 120 
159.667 -121.325 731.9 0.337653 -0.794663 -0.504481 161 128 121 
161.099 -121.839 735 0.475494 -0.60894 -0.6349 162 129 122 
161.81 -121.806 734.8 -0.283893 -0.691253 -0.66451 166 133 126 
162.011 -121.392 732.3 -0.83273 -0.404925 -0.377621 166 133 126 
162.942 -121.524 733.1 -0.195906 -0.668947 -0.717029 166 133 126 
164.342 -122.005 736 -0.89442 0.447208 0.00426046 166 133 126 
164.538 -121.591 733.5 -0.898022 -0.0691346 -0.434485 168 135 130 
165.314 -121.607 733.6 -0.807262 -0.473967 -0.351686 167 134 129 
165.116 -120.911 729.4 -0.445823 0.223586 -0.866748 166 133 126 
166.775 -121.574 733.4 0.838387 -0.334032 -0.430731 166 133 126 
168.42 -122.22 737.3 0.315364 -0.592618 -0.741181 164 131 122 
168.626 -121.823 734.9 -0.988944 0.0877539 -0.119533 162 129 120 
168.851 -121.441 732.6 -0.779442 -0.474331 -0.409244 157 125 114 
169.65 -121.474 732.8 -0.666653 -0.152129 -0.729679 153 121 110 
170.147 -121.292 731.7 -0.733456 0.311688 -0.604064 149 117 106 
170.852 -121.259 731.5 -0.769108 0.164589 -0.617562 148 116 105 
171.064 -120.878 729.2 0.0513523 -0.509045 -0.859206 143 113 103 
172.756 -121.541 733.2 0.766188 0.498707 -0.405275 140 110 100 
173.982 -121.872 735.2 0.4014 0.864942 -0.301253 138 109 101 
174.571 -121.756 734.5 -0.306649 0.947953 -0.0857377 136 107 99 
175.254 -121.707 734.2 -0.349107 0.933288 -0.0842483 130 103 96 
175.768 -121.541 733.2 -0.0554039 0.94177 -0.331662 127 100 93 
176.522 -121.541 733.2 0.375407 0.678687 -0.631231 122 97 92 
177.71 -121.839 735 0.272467 -0.0781219 -0.958988 117 94 88 
178.271 -121.707 734.2 0.602545 -0.549757 -0.578538 110 87 81 
179.464 -122.005 736 -0.884401 0.321982 -0.33788 104 81 75 
179.779 -121.707 734.2 -0.677647 0.734566 -0.0347618 96 73 67 
179.87 -121.259 731.5 -0.459167 0.887547 0.0377653 94 71 65 
181.066 -121.557 733.3 -0.335069 0.941326 -0.0404333 91 68 62 
180.976 -120.994 729.9 -0.273428 0.607683 -0.745626 89 66 60 
183.419 -122.121 736.7 -0.314694 0.888718 -0.333389 88 68 61 
183.926 -121.955 735.7 -0.474273 0.860397 -0.186499 89 66 60 
184.079 -121.557 733.3 -0.334997 0.937472 -0.094469 86 63 57 
185.538 -122.022 736.1 0.686947 0.220208 -0.692541 84 61 55 
186.37 -122.071 736.4 -0.89725 -0.112249 -0.427016 86 61 56 
186.695 -121.789 734.7 0.647714 0.505081 -0.570404 85 60 55 
187.347 -121.723 734.3 0.701312 -0.0572009 -0.710556 86 58 54 
188.64 -122.071 736.4 0.420877 -0.506258 -0.752706 86 58 54 
189.679 -122.254 737.5 -0.279828 0.49503 -0.822582 85 62 54 
190.101 -122.038 736.2 -0.834615 0.533778 -0.136012 85 65 54 
190.365 -121.723 734.3 -0.828259 0.0524693 -0.557883 87 67 56 
190.781 -121.508 733 -0.18454 -0.307956 -0.933332 89 69 58 
191.952 -121.773 734.6 0.802366 0.0263671 -0.596249 94 74 63 
193.52 -122.287 737.7 0.497954 0.452773 -0.73962 97 77 66 
193.988 -122.104 736.6 -0.558075 0.68006 -0.475469 100 80 69 
194.348 -121.856 735.1 0.242591 -0.672828 -0.698894 103 83 72 
195.846 -122.32 737.9 0.713968 0.0341349 -0.699345 109 91 79 
196.418 -122.204 737.2 -0.535659 0.83095 -0.150306 111 93 81 
196.64 -121.872 735.2 -0.656648 0.695165 -0.292505 115 97 87 
197.53 -121.955 735.7 -0.146241 -0.475198 -0.867641 118 100 90 
197.854 -121.69 734.1 -0.724401 -0.0944845 -0.682873 120 101 94 
198.906 -121.872 735.2 0.640067 0.381431 -0.666952 122 103 96 
199.77 -121.939 735.6 0.585565 0.687207 -0.429953 126 107 101 
200.689 -122.038 736.2 -0.320892 0.938094 -0.13041 130 111 105 
201.199 -121.889 735.3 0.0762155 0.928971 -0.36222 133 114 110 
202.421 -122.171 737 0.742529 -0.175334 -0.646459 133 114 110 
203.757 -122.519 739.1 0.0749904 -0.828491 -0.554959 133 114 110 
203.327 -121.806 734.8 0.705125 0.0507507 -0.707264 133 114 110 
204.693 -122.171 737 -0.467167 0.742095 -0.480676 136 117 113 
205.032 -121.922 735.5 -0.148044 0.60842 -0.779685 137 118 114 
205.06 -121.491 732.9 -0.0992021 0.994866 0.0200091 139 120 116 
206.009 -121.607 733.6 -0.186497 0.879865 -0.437101 141 122 118 
206.96 -121.723 734.3 0.521159 -0.623149 -0.583162 136 119 112 
208.846 -122.386 738.3 0.838405 -0.227939 -0.495097 141 124 116 
210.683 -123.016 742.1 0.585811 -0.419882 -0.693199 157 140 132 
211.218 -122.883 741.3 -0.666252 0.666475 -0.334544 169 152 144 
113.033 -125.565 762.2 0 0 0 109 90 83 
114.824 -124.115 753.4 -0.620859 0.767804 -0.158149 115 98 90 
115.337 -123.835 751.7 -0.761462 0.585614 -0.277906 114 97 89 
115.816 -123.522 749.8 0.332786 -0.403621 -0.852258 104 87 80 
117.021 -123.984 752.6 0.882876 -0.110355 -0.456456 99 82 75 
118.045 -124.247 754.2 0.685738 -0.166764 -0.708486 90 72 68 
118.646 -124.066 753.1 -0.691716 0.722135 -0.00699769 82 64 60 
119.151 -123.786 751.4 -0.442566 0.885119 -0.143875 78 63 60 
119.891 -123.753 751.2 -0.85414 0.505091 -0.123807 80 66 63 
119.923 -122.995 746.6 -0.797347 0.603422 -0.0109216 81 67 64 
120.949 -123.259 748.2 -0.104525 -0.880236 -0.462881 79 65 62 
121.669 -123.209 747.9 -0.188541 -0.852262 -0.487957 80 66 63 
122.568 -123.341 748.7 -0.376975 -0.719668 -0.583067 81 67 64 
123.057 -123.061 747 -0.349497 -0.500282 -0.792193 85 71 68 
123.858 -123.094 747.2 -0.826991 0.561052 -0.0361395 87 73 70 
124.125 -122.6 744.2 -0.352211 0.754402 -0.553918 89 75 75 
125.124 -122.83 745.6 0.754125 0.239775 -0.611395 88 74 73 
125.924 -122.863 745.8 0.730205 0.263429 -0.630401 88 74 73 
126.894 -123.061 747 -0.498389 -0.140369 -0.855514 87 73 72 
127.491 -122.896 746 -0.904041 -0.337725 -0.262014 86 72 69 
127.569 -122.237 742 -0.926585 -0.323966 -0.191017 85 71 68 
128.228 -122.138 741.4 0.417162 -0.752631 -0.509433 83 70 64 
129.25 -122.386 742.9 0.427042 -0.709294 -0.560836 81 68 62 
129.996 -122.369 742.8 -0.563077 -0.358902 -0.744401 83 68 63 
130.742 -122.353 742.7 -0.44327 0.808932 -0.386188 81 66 61 
131.469 -122.32 742.5 0.241262 0.857524 -0.454363 79 64 59 
132.535 -122.6 744.2 0.693684 0.463001 -0.551755 77 62 57 
133.532 -122.814 745.5 0.109579 0.778316 -0.618237 75 60 55 
134.316 -122.83 745.6 0.0551263 0.962598 -0.265268 74 59 54 
134.81 -122.583 744.1 0.287513 -0.587532 -0.756401 70 55 50 
135.574 -122.583 744.1 -0.398405 -0.340805 -0.851543 68 53 48 
136.284 -122.534 743.8 -0.679448 0.654384 -0.331861 72 57 52 
136.956 -122.451 743.3 0.709265 0.453681 -0.539553 71 56 49 
138.016 -122.715 744.9 0.224584 0.680719 -0.697269 70 55 48 
138.427 -122.402 743 -0.604909 0.795834 -0.0270748 68 53 46 
138.797 -122.056 740.9 -0.53831 0.839251 -0.0766817 68 53 46 
139.332 -121.858 739.7 -0.798431 0.451626 -0.398174 70 55 48 
139.94 -121.727 738.9 0.363271 -0.726154 -0.583725 72 57 50 
141.537 -122.451 743.3 0.530098 -0.62681 -0.571057 74 59 52 
142.282 -122.435 743.2 -0.407958 0.62654 -0.664091 78 60 50 
141.967 -121.512 737.6 0.26808 -0.514777 -0.814333 79 59 50 
142.725 -121.512 737.6 -0.660126 -0.164629 -0.732892 80 60 51 
143.172 -121.249 736 -0.51225 -0.511519 -0.68989 83 60 54 
144.984 -122.138 741.4 -0.183713 -0.276562 -0.943273 86 63 57 
145.627 -122.04 740.8 0.580547 -0.229414 -0.781239 89 64 60 
146.256 -121.298 736.3 0.305606 0.610146 -0.730976 96 71 67 
147.212 -121.463 737.3 -0.395503 0.621882 -0.6759 98 70 66 
147.688 -121.232 735.9 -0.651733 0.665263 -0.364238 100 73 66 
148.545 -121.315 736.4 -0.610721 0.703646 -0.363183 104 75 69 
149.038 -121.101 735.1 0.798643 0.0883643 -0.595283 107 78 70 
150.18 -121.414 737 0.483227 -0.482835 -0.730316 108 78 70 
150.815 -121.315 736.4 0.168123 -0.697932 -0.696151 110 80 70 
151.962 -121.628 738.3 0.559924 -0.434352 -0.705566 114 84 74 
152.741 -121.644 738.4 -0.130466 0.732498 -0.66815 119 86 77 
153.25 -121.447 737.2 -0.615838 0.78751 -0.0239 123 90 83 
153.506 -121.051 734.8 -0.0967015 -0.191377 -0.976741 120 87 80 
154.639 -121.348 736.6 0.139064 -0.218536 -0.965869 126 93 86 
155.016 -121.051 734.8 -0.741214 0.317501 -0.591434 131 98 91 
155.75 -121.035 734.7 0.297315 0.84624 -0.442132 138 105 98 
156.632 -121.134 735.3 0.160323 0.961805 -0.221872 140 107 100 
157.666 -121.348 736.6 0.0456118 0.823739 -0.565132 145 112 105 
158.035 -121.051 734.8 -0.923676 0.380386 -0.0461439 149 116 109 
157.883 -120.359 730.6 -0.890942 0.453665 0.0202567 152 119 112 
158.308 -120.112 729.1 -0.585589 0.230194 -0.777236 154 121 114 
159.1 -120.145 729.3 0.41089 -0.438624 -0.799236 157 124 117 
160.31 -120.491 731.4 0.498986 -0.672609 -0.546453 160 127 120 
161.017 -120.458 731.2 0.0901672 -0.843881 -0.5289 165 132 125 
161.923 -120.573 731.9 -0.638273 -0.456181 -0.620087 165 132 125 
162.319 -120.31 730.3 -0.761519 -0.137801 -0.633325 165 132 125 
162.891 -120.178 729.5 0.537279 0.148431 -0.830241 165 132 125 
164.358 -120.705 732.7 -0.500719 0.0788695 -0.862009 167 134 129 
164.638 -120.359 730.6 -0.939012 -0.0244899 -0.343011 166 133 128 
165.32 -120.31 730.3 0.582317 0.169617 -0.79507 165 132 125 
166.639 -120.722 732.8 0.829096 0.100228 -0.550048 165 132 125 
167.689 -120.936 734.1 0.32392 -0.812769 -0.484235 163 130 121 
168.489 -120.969 734.3 -0.326238 -0.800034 -0.503502 160 127 118 
168.667 -120.557 731.8 -0.845171 0.529192 -0.0751109 156 124 113 
169.141 -120.359 730.6 -0.486259 0.401658 -0.77603 152 120 109 
170.054 -120.475 731.3 -0.714516 0.0384707 -0.69856 146 114 103 
170.455 -120.227 729.8 -0.000264188 0.202069 -0.979371 144 112 101 
171.416 -120.376 730.7 -0.193642 0.662564 -0.723541 139 109 99 
173.415 -121.249 736 -0.223127 0.439903 -0.869885 137 107 97 
174.479 -121.463 737.3 0.538368 0.157491 -0.827863 133 104 96 
175.26 -121.479 737.4 -0.379275 0.879924 -0.286154 130 101 93 
175.827 -121.348 736.6 -0.469321 0.677971 -0.565768 122 95 88 
176.152 -121.051 734.8 -0.439736 0.879318 -0.182843 117 90 83 
177.051 -121.15 735.4 -0.349038 0.828767 -0.4374 110 85 80 
177.541 -120.969 734.3 -0.695111 0.290158 -0.657746 105 82 76 
177.907 -120.705 732.7 0.675313 0.0253571 -0.737095 97 74 68 
179.415 -121.216 735.8 0.802168 0.076089 -0.592231 91 68 62 
179.535 -120.788 733.2 -0.623861 0.0917915 -0.776126 89 66 60 
180.583 -120.985 734.4 -0.0373548 0.817607 -0.574564 87 64 58 
181.979 -121.414 737 0.613327 -0.650819 -0.44751 84 61 55 
181.05 -120.293 730.2 0.289909 0.350627 -0.890513 82 59 53 
182.771 -120.936 734.1 0.0245508 0.473788 -0.880296 84 61 55 
183.526 -120.936 734.1 0.355875 -0.608338 -0.709421 83 60 54 
184.581 -121.134 735.3 -0.067802 -0.0659147 -0.995519 80 57 51 
185.664 -121.348 736.6 0.600659 -0.495961 -0.627082 78 53 48 
186.345 -121.298 736.3 -0.708228 -0.377655 -0.596481 83 58 53 
186.644 -121.002 734.5 0.587865 -0.293689 -0.753765 84 56 52 
188.393 -121.644 738.4 0.525302 0.564792 -0.63645 83 55 51 
188.742 -121.381 736.8 -0.130383 0.804444 -0.579544 82 54 50 
189.448 -121.348 736.6 -0.36693 -0.172642 -0.914088 83 60 52 
190.101 -121.282 736.2 -0.776054 -0.231143 -0.586782 85 63 52 
190.52 -121.068 734.9 -0.576661 0.685683 -0.444186 89 67 56 
191.249 -121.051 734.8 -0.0582806 0.96203 -0.266649 93 71 60 
192.056 -121.084 735 0.47418 0.764501 -0.436683 97 75 64 
193.152 -121.298 736.3 -0.000477151 0.134868 -0.990864 99 77 66 
193.435 -121.002 734.5 -0.994503 -0.0199922 -0.102777 103 81 70 
193.317 -120.458 731.2 -0.105596 0.762797 -0.637957 106 84 73 
194.174 -120.524 731.6 0.317327 0.768562 -0.555532 106 86 75 
196.551 -121.529 737.7 -0.836877 -0.360752 -0.411698 109 89 78 
196.827 -121.232 735.9 -0.856207 0.44616 -0.260482 112 92 83 
197.154 -120.969 734.3 -0.824521 0.518254 -0.227108 115 95 86 
197.719 -120.853 733.6 -0.135779 0.338784 -0.931015 124 104 97 
198.527 -120.886 733.8 0.689587 0.225754 -0.688117 125 105 98 
199.878 -121.249 736 0.722036 -0.361354 -0.58999 128 107 102 
201.534 -121.792 739.3 0.68504 0.325993 -0.651497 133 114 108 
201.418 -121.265 736.1 -0.395912 0.878138 -0.268567 133 114 108 
202.421 -121.414 737 -0.451762 -0.267732 -0.851017 134 115 109 
202.958 -121.282 736.2 0.0151169 -0.870884 -0.491256 135 116 110 
203.41 -121.101 735.1 0.618176 -0.255493 -0.743358 136 117 111 
205.276 -121.76 739.1 0.185263 0.688614 -0.701062 136 117 111 
205.199 -121.265 736.1 -0.935308 -0.0655812 -0.347705 140 119 114 
206.291 -121.463 737.3 0.418014 0.00133072 -0.90844 141 120 115 
207.217 -121.562 737.9 -0.207484 0.954758 -0.213044 141 120 115 
207.129 -121.068 734.9 -0.328226 0.934826 -0.135532 134 115 108 
208.139 -121.216 735.8 0.841763 -0.18411 -0.507483 136 117 110 
210.059 -121.891 739.9 0.823088 -0.311779 -0.474679 141 122 115 
211.303 -122.171 741.6 0.64434 -0.0750584 -0.761047 142 123 116 
115.129 -123.669 755.4 -0.46051 0.873715 -0.156692 100 86 77 
115.843 -123.603 755 -0.116038 0.954622 -0.274284 94 79 72 
116.758 -123.751 755.9 -0.746826 0.57055 -0.341647 79 64 57 
116.959 -123.145 752.2 0.768298 0.401979 -0.498128 77 62 57 
118.045 -123.472 754.2 0.410484 0.784476 -0.464866 73 58 53 
117.89 -122.506 748.3 0 0 0 69 54 49 
119.69 -123.571 754.8 -0.568266 0.821964 0.0380628 72 57 52 
119.986 -123.079 751.8 -0.807888 0.13298 -0.574137 73 58 53 
120.534 -122.85 750.4 -0.935758 0.348163 -0.0560295 73 58 53 
120.868 -122.408 747.7 -0.651517 0.404828 -0.641592 72 57 52 
121.457 -122.228 746.6 -0.221471 0.748113 -0.625522 79 64 59 
122.224 -122.228 746.6 -0.618333 0.553242 -0.5582 79 64 59 
122.794 -122.032 745.4 -0.0202565 -0.205665 -0.978413 81 66 61 
123.924 -122.392 747.6 0.456784 -0.26692 -0.848588 82 67 62 
124.042 -121.753 743.7 -0.865191 0.452332 -0.216429 84 68 68 
124.873 -121.819 744.1 0.668895 0.498277 -0.551634 84 68 68 
126.042 -122.212 746.5 0.82572 0.0278693 -0.563392 83 67 67 
126.962 -122.359 747.4 -0.835552 0.346938 -0.426014 82 67 64 
127.2 -121.852 744.3 -0.947794 0.114234 -0.297721 83 68 65 
127.655 -121.557 742.5 -0.818808 0.567062 -0.0894123 82 67 62 
128.038 -121.197 740.3 0.563334 -0.500906 -0.657075 80 65 60 
129.355 -121.721 743.5 0.816697 -0.255222 -0.51756 78 63 58 
130.259 -121.852 744.3 0.298941 0.467113 -0.83213 80 65 60 
130.988 -121.819 744.1 -0.531431 0.412817 -0.739705 77 62 57 
131.77 -121.835 744.2 -0.16964 -0.170237 -0.970691 73 58 53 
132.392 -121.704 743.4 0.0883141 -0.439768 -0.893759 69 54 49 
133.192 -121.737 743.6 -0.306654 -0.748798 -0.587592 69 54 49 
133.631 -121.442 741.8 -0.75623 -0.535478 -0.376006 68 53 48 
134.013 -121.098 739.7 0.276669 -0.642419 -0.714669 67 52 47 
135.101 -121.393 741.5 0.2744 -0.84101 -0.46627 65 50 45 
136.009 -121.524 742.3 0.01837 -0.823907 -0.566427 67 52 45 
136.458 -121.246 740.6 0.44079 -0.584015 -0.681638 66 51 44 
137.905 -121.852 744.3 0.794677 -0.326078 -0.512017 64 49 42 
138.595 -121.786 743.9 -0.709622 0.693558 -0.124156 62 47 40 
138.947 -121.426 741.7 -0.630878 0.763713 -0.136875 65 50 43 
139.747 -121.459 741.9 -0.348385 0.905842 -0.240992 65 50 43 
140.3 -121.279 740.8 -0.198501 0.970137 -0.139396 65 50 43 
140.947 -121.18 740.2 -0.272221 0.843973 -0.462174 66 51 44 
141.459 -120.968 738.9 -0.61192 -0.481369 -0.627565 69 50 43 
141.621 -120.46 735.8 0.89287 -0.0999253 -0.439088 69 50 43 
142.899 -120.902 738.5 0.471735 0.719273 -0.510012 71 51 44 
143.405 -120.689 737.2 -0.461964 0.870114 -0.171729 72 52 45 
144.397 -120.886 738.4 0.589056 -0.432424 -0.682658 75 51 47 
145.215 -120.935 738.7 0.42272 -0.741724 -0.520724 77 53 49 
146.665 -121.508 742.2 0.690323 -0.611777 -0.386243 79 55 53 
147.07 -121.213 740.4 -0.22884 0.973383 -0.0125262 71 47 47 
147.671 -121.082 739.6 -0.139734 0.988651 -0.0551655 77 52 48 
148.19 -120.886 738.4 -0.465342 0.885095 0.0079803 81 56 51 
148.767 -120.738 737.5 -0.214424 0.943016 -0.254448 89 64 59 
149.119 -120.411 735.5 0.8068 0.24556 -0.537378 97 69 65 
150.812 -121.164 740.1 0.894568 0.249293 -0.370946 95 68 61 
150.364 -120.198 734.2 0.567626 -0.402925 -0.71795 99 70 64 
151.427 -120.444 735.7 0.05334 -0.472411 -0.879763 104 75 67 
152.1 -120.378 735.3 0.270889 -0.803525 -0.530063 108 79 71 
154.165 -121.41 741.6 -0.734342 0.606344 -0.305104 113 80 73 
154.572 -121.131 739.9 -0.954153 0.291529 -0.0678499 115 82 75 
154.387 -120.395 735.4 -0.861621 0.247721 -0.442993 120 87 80 
155.058 -120.329 735 -0.552307 -0.266373 -0.789938 124 91 84 
155.962 -120.444 735.7 0.790578 -0.242571 -0.562269 128 95 88 
157.335 -120.918 738.6 0.570437 0.570465 -0.590907 131 98 91 
157.816 -120.706 737.3 -0.768482 0.587974 -0.252433 138 105 98 
158.229 -120.444 735.7 -0.901455 0.257546 -0.347922 143 110 103 
158.812 -120.313 734.9 -0.638541 0.768967 -0.0308947 147 114 107 
159.133 -119.985 732.9 -0.391446 0.920181 0.00604561 150 117 110 
159.733 -119.871 732.2 -0.157018 0.984586 -0.077047 155 122 115 
160.332 -119.756 731.5 -0.0187721 0.965266 -0.260594 159 126 119 
161.083 -119.756 731.5 0.187952 0.864843 -0.465533 159 126 119 
161.901 -119.805 731.8 -0.0737008 0.856786 -0.510377 160 127 120 
162.675 -119.822 731.9 -0.257454 0.833098 -0.489557 162 129 122 
163.337 -119.756 731.5 0.106438 0.957788 -0.267044 164 131 124 
164.223 -119.854 732.1 0.562721 0.384343 -0.731864 164 131 126 
165.336 -120.116 733.7 -0.235727 0.646235 -0.725819 164 131 126 
165.411 -119.625 730.7 -0.354644 0.883265 -0.306709 163 130 123 
166.98 -120.214 734.3 0.503509 -0.609502 -0.612361 162 129 122 
167.346 -119.936 732.6 -0.444194 -0.737533 -0.508661 160 127 118 
167.731 -119.674 731 0.386363 -0.751316 -0.535022 157 124 115 
169.335 -120.28 734.7 0.701324 -0.126093 -0.701602 151 119 108 
169.858 -120.116 733.7 -0.316041 0.948054 -0.0362174 147 115 104 
170.263 -119.871 732.2 -0.169844 0.981305 -0.0905137 144 112 101 
170.782 -119.707 731.2 -0.268586 0.901854 -0.338411 141 109 98 
171.862 -119.936 732.6 0.671215 0.558928 -0.486898 134 104 94 
173.722 -120.706 737.3 -0.176568 -0.769843 -0.613323 129 99 89 
173.745 -120.198 734.2 -0.93872 -0.219047 -0.266126 124 95 87 
174.048 -119.887 732.3 -0.778579 -0.0248012 -0.627056 121 92 84 
175.158 -120.133 733.8 0.479059 -0.711876 -0.513552 114 87 80 
176.583 -120.591 736.6 0.287572 -0.67431 -0.680153 110 83 76 
177.051 -120.395 735.4 -0.827971 0.13526 -0.544213 98 73 68 
177.468 -120.165 734 -0.787044 0.0179141 -0.616637 94 71 65 
178.222 -120.165 734 0.744305 0.120968 -0.656793 89 66 60 
179.732 -120.673 737.1 0.887506 0.0937088 -0.451167 85 62 56 
180.979 -121 739.1 0.439485 0.662374 -0.606724 84 61 55 
181.198 -120.64 736.9 -0.525513 0.850614 0.017088 84 61 55 
181.337 -120.231 734.4 0.264266 0.581453 -0.769465 83 60 54 
182.662 -120.607 736.7 0.819179 -0.176185 -0.545807 82 59 53 
183.718 -120.804 737.9 -0.300076 0.941425 -0.153863 81 56 51 
183.526 -120.182 734.1 -0.117541 0.646676 -0.753654 81 56 51 
184.706 -120.46 735.8 0.167376 0.232209 -0.958157 81 56 51 
184.731 -119.985 732.9 -0.409919 -0.150895 -0.899554 83 55 51 
186.016 -120.329 735 0.145554 -0.784056 -0.603383 81 53 49 
186.618 -120.231 734.4 0.34864 -0.129983 -0.9282 83 54 50 
187.96 -120.607 736.7 0.608857 -0.146205 -0.779691 85 56 52 
188.665 -120.575 736.5 0.218904 -0.630979 -0.744276 87 58 54 
189.602 -120.689 737.2 -0.726613 0.248452 -0.64055 85 58 51 
189.946 -120.427 735.6 -0.196976 0.458321 -0.866684 89 62 53 
190.702 -120.427 735.6 0.174974 0.915374 -0.362593 97 70 61 
191.718 -120.591 736.6 0.171837 0.944489 -0.280024 103 76 67 
192.605 -120.673 737.1 0.0557391 0.927356 -0.370005 104 77 68 
193.441 -120.722 737.4 -0.397267 0.794678 -0.458984 106 79 70 
193.645 -120.378 735.3 -0.740948 0.671503 -0.00892205 109 82 73 
193.766 -119.985 732.9 -0.332179 0.939961 -0.0783038 111 84 75 
195.077 -120.329 735 0.410681 0.85882 -0.306218 111 87 77 
195.938 -120.395 735.4 0.320955 0.780668 -0.536233 113 89 79 
196.667 -120.378 735.3 -0.0293884 -0.327035 -0.944555 116 91 84 
197.932 -120.689 737.2 -0.79524 0.592991 -0.126312 120 95 88 
197.908 -120.214 734.3 0.161385 0.457983 -0.874189 131 103 99 
199.204 -120.542 736.3 0.386486 0.706501 -0.592862 133 105 101 
199.933 -120.525 736.2 -0.566918 0.153234 -0.809397 136 108 105 
200.253 -120.264 734.6 0.383208 -0.706499 -0.594988 140 112 109 
200.187 -119.772 731.6 0 0 0 142 119 113 
202.531 -120.722 737.4 -0.786173 0.596677 -0.160962 141 121 114 
202.158 -120.051 733.3 -0.824082 0.530543 -0.198526 143 123 116 
203.438 -120.362 735.2 0.639347 -0.479825 -0.600835 145 125 118 
205.248 -120.984 739 0.68238 -0.200621 -0.702929 147 127 120 
205.143 -120.476 735.9 -0.769392 0.635456 0.0650452 146 126 119 
205.34 -120.149 733.9 -0.407797 0.709227 -0.575064 145 125 118 
206.487 -120.378 735.3 0.780279 -0.229108 -0.581958 144 124 117 
207.778 -120.689 737.2 0.0718063 0.972726 -0.220564 138 118 111 
208.422 -120.624 736.8 0.141045 0.965338 -0.219612 138 118 111 
209.746 -120.951 738.8 0.830359 -0.0800655 -0.551446 140 120 113 
211.759 -121.671 743.2 0.884692 0.0717111 -0.460627 143 123 116 
115.525 -123.316 758 -0.906486 -0.0238639 -0.421562 81 66 59 
115.981 -122.974 755.9 -0.933493 0.148469 -0.326415 72 57 52 
116.681 -122.893 755.4 -0.470636 -0.651886 -0.594598 67 52 47 
117.099 -122.519 753.1 -0.417487 -0.462695 -0.78206 68 53 50 
118.436 -123.104 756.7 0.367332 -0.587465 -0.721077 68 53 50 
118.709 -122.584 753.5 -0.982703 -0.117294 -0.143305 69 54 51 
119.119 -122.209 751.2 -0.944546 -0.186045 -0.270592 70 55 50 
119.428 -121.738 748.3 0.623355 0.222513 -0.749611 70 55 50 
120.469 -122.014 750 -0.911881 0.236075 -0.33577 71 56 51 
120.658 -121.429 746.4 -0.804047 0.336428 -0.49023 72 57 52 
121.799 -121.803 748.7 0.353098 -0.304452 -0.884664 75 60 55 
122.765 -121.998 749.9 0.0202809 -0.328624 -0.944243 76 61 56 
123.172 -121.64 747.7 -0.831739 0.492871 -0.255515 77 62 57 
123.874 -121.575 747.3 0.672028 -0.381095 -0.634937 78 63 58 
124.926 -121.852 749 0.734016 -0.431842 -0.52415 82 64 62 
125.51 -121.673 747.9 -0.264149 0.954582 -0.137839 82 64 62 
126.093 -121.494 746.8 -0.351643 0.559597 -0.750466 82 64 62 
125.926 -120.599 741.3 -0.305793 -0.508403 -0.804995 82 64 62 
127.234 -121.119 744.5 0.591234 -0.420544 -0.688175 80 62 58 
128.291 -121.396 746.2 -0.168651 0.912112 -0.373642 79 61 57 
129.075 -121.412 746.3 -0.94225 -0.118109 -0.313393 78 61 54 
129.094 -120.713 742 0.398179 -0.603138 -0.691143 77 60 53 
130.154 -120.989 743.7 0.410928 -0.684992 -0.601601 75 58 51 
131.006 -121.071 744.2 -0.483611 -0.636244 -0.601094 73 56 49 
131.345 -120.68 741.8 -0.340759 -0.607635 -0.7174 70 53 46 
132.25 -120.81 742.6 -0.282078 -0.756926 -0.589487 68 51 44 
133.013 -120.81 742.6 -0.221213 -0.884602 -0.410541 64 47 40 
133.631 -120.68 741.8 -0.0953305 -0.796548 -0.597013 63 46 39 
134.176 -120.485 740.6 -0.481295 0.831464 -0.277531 62 45 38 
134.937 -120.485 740.6 0.617264 0.480856 -0.622705 61 44 37 
135.569 -120.371 739.9 0.334184 -0.793485 -0.508627 60 45 38 
136.753 -120.745 742.2 0.404245 0.294661 -0.865887 60 46 37 
137.608 -120.827 742.7 0.843446 0.151254 -0.515481 60 46 37 
139.023 -121.396 746.2 0.499692 -0.0500284 -0.864757 60 46 37 
139.471 -121.119 744.5 -0.848833 0.516992 -0.11046 61 47 38 
139.954 -120.875 743 -0.895844 -0.0778877 -0.437489 58 44 35 
140.622 -120.794 742.5 -0.201027 0.301083 -0.932168 58 44 35 
141.671 -121.038 744 -0.16921 0.984354 -0.0491367 58 44 35 
141.956 -120.631 741.5 -0.602207 0.768107 -0.21762 64 47 40 
142.699 -120.615 741.4 0.0627279 -0.789536 -0.61049 64 47 40 
143.132 -120.339 739.7 0.543903 0.617624 -0.568076 64 47 40 
144.125 -120.534 740.9 -0.376751 0.926079 -0.0209037 65 46 42 
144.221 -119.981 737.5 -0.255241 0.695388 -0.671779 65 46 42 
145.274 -120.225 739 -0.000918166 0.73564 -0.677372 66 45 44 
145.855 -120.078 738.1 -0.563405 0.640085 -0.522366 67 46 45 
146.375 -119.883 736.9 -0.470731 0.770406 -0.429985 68 47 46 
148.21 -120.762 742.3 0.0383724 -0.699562 -0.713541 68 44 42 
149.053 -120.827 742.7 -0.5516 0.710587 -0.43681 73 48 44 
149.09 -120.241 739.1 -0.445869 0.891696 -0.0779656 79 54 50 
150.153 -120.485 740.6 0.093908 -0.0634577 -0.993556 84 59 54 
150.792 -120.387 740 0.33387 -0.755879 -0.563185 92 64 60 
151.695 -120.501 740.7 0.327152 -0.778426 -0.535747 95 68 61 
151.983 -120.127 738.4 -0.707198 0.706467 0.0278255 101 72 66 
151.955 -119.509 734.6 -0.47805 0.716768 -0.507654 105 76 70 
153.354 -120.013 737.7 0.517057 -0.708458 -0.480353 110 77 70 
154.237 -120.111 738.3 -0.154626 -0.873524 -0.46157 112 79 72 
154.723 -119.899 737 -0.940999 0.292605 -0.17001 117 84 77 
155.185 -119.672 735.6 -0.889737 0.431325 -0.149426 121 88 81 
155.58 -119.395 733.9 0.575628 -0.484777 -0.658516 125 92 85 
156.973 -119.883 736.9 0.762666 -0.408342 -0.501595 129 96 89 
157.901 -120.013 737.7 -0.920007 -0.038698 -0.389987 136 103 96 
158.164 -119.639 735.4 -0.921531 -0.222395 -0.31831 141 108 101 
158.833 -119.574 735 -0.369887 -0.727276 -0.578146 146 113 106 
159.589 -119.574 735 -0.502724 -0.548027 -0.668532 149 116 109 
160.169 -119.444 734.2 -0.222567 0.37878 -0.898326 153 120 113 
160.923 -119.444 734.2 -0.331159 0.861056 -0.385897 157 124 117 
161.479 -119.297 733.3 -0.0627635 0.827991 -0.557217 159 126 119 
162.476 -119.476 734.4 0.0564172 0.858959 -0.508927 160 127 120 
162.786 -119.151 732.4 -0.617183 0.755275 -0.220556 161 128 121 
163.65 -119.232 732.9 0.442644 -0.354439 -0.823674 163 130 123 
164.762 -119.493 734.5 -0.70075 -0.0757884 -0.70937 164 131 126 
164.66 -118.874 730.7 0.52307 -0.410954 -0.746668 164 131 126 
166.248 -119.476 734.4 0.48202 0.578734 -0.657818 163 130 123 
166.116 -118.842 730.5 -0.493078 0.0334099 -0.869343 162 129 122 
166.729 -118.744 729.9 -0.261955 -0.802842 -0.53556 159 126 117 
167.754 -118.94 731.1 0.158419 -0.657456 -0.736651 156 123 114 
168.736 -119.102 732.1 0.795348 -0.150201 -0.587249 151 119 108 
170.229 -119.623 735.3 0.707298 -0.326212 -0.627148 146 114 103 
171.17 -119.753 736.1 -0.210761 0.921594 -0.325951 142 110 99 
172.183 -119.932 737.2 0.124335 0.841717 -0.525407 139 107 96 
172.753 -119.802 736.4 -0.947951 -0.244617 -0.203843 131 101 91 
172.991 -119.444 734.2 0.174172 -0.778523 -0.602964 127 97 87 
173.864 -119.525 734.7 -0.469578 -0.782227 -0.409411 118 89 81 
174.452 -119.411 734 -0.605043 -0.638731 -0.475337 114 85 77 
175.063 -119.314 733.4 0.123479 0.464832 -0.876746 106 79 72 
175.84 -119.33 733.5 0.64544 -0.354043 -0.676802 101 74 67 
176.883 -119.525 734.7 -0.274523 0.789235 -0.549313 91 66 61 
177.565 -119.476 734.4 -0.362066 0.922207 -0.135802 88 65 59 
178.198 -119.395 733.9 0.278313 0.795095 -0.538856 84 61 55 
179.488 -119.753 736.1 0.764263 -0.382281 -0.519387 81 58 52 
180.93 -120.208 738.9 0.637382 -0.573069 -0.515108 83 60 54 
181.788 -120.274 739.3 -0.82501 0.342539 -0.449472 82 59 53 
182.078 -119.964 737.4 -0.772563 0.632031 -0.0606917 81 58 52 
182.662 -119.851 736.7 0.724211 -0.0865952 -0.68412 80 57 51 
183.942 -120.192 738.8 0.798624 -0.0998743 -0.593485 80 55 50 
184.901 -120.322 739.6 -0.125937 0.542717 -0.83042 82 54 50 
184.305 -119.444 734.2 0.786562 0.388947 -0.479626 82 54 50 
185.563 -119.769 736.2 -0.528512 0.844424 -0.0873189 82 54 50 
185.915 -119.509 734.6 0.0372235 0.901834 -0.430477 85 56 52 
186.364 -119.314 733.4 -0.638506 0.743533 -0.198668 86 57 53 
188.444 -120.16 738.6 -0.455233 0.888837 -0.0522662 88 59 55 
188.307 -119.59 735.1 -0.562864 0.794413 -0.228237 91 60 57 
189.653 -119.964 737.4 0.609986 0.277762 -0.742136 90 61 55 
189.946 -119.672 735.6 0.0755089 0.952931 -0.293633 93 64 56 
191.402 -120.111 738.3 0.444295 0.743914 -0.499194 100 71 63 
192.42 -120.274 739.3 0.320784 0.855416 -0.406647 108 79 71 
192.945 -120.127 738.4 -0.300488 0.938342 -0.170943 108 79 71 
193.362 -119.916 737.1 0.385388 -0.481724 -0.787031 110 81 73 
194.04 -119.867 736.8 -0.59338 0.684863 -0.422922 113 84 76 
194.824 -119.883 736.9 -0.310204 0.950614 0.0103434 115 86 78 
195.368 -119.753 736.1 0.141272 0.97655 -0.162454 121 92 84 
196.151 -119.769 736.2 0.0937822 0.96226 -0.25546 122 95 86 
197.309 -120.013 737.7 0.451826 0.677463 -0.580428 125 98 91 
196.536 -119.086 732 0 0 0 129 102 95 
