ply
format ascii 1.0
comment pointcloud saved from 3DCamera
element vertex 742
property float x
property float y
property float z
property float nx
property float ny
property float nz
property uchar red
property uchar green
property uchar blue
end_header
28.1807 -140.582 734.3 -0.954162 0.236243 -0.183752 203 177 176 
29.2228 -141.979 741.6 0 0 0 203 179 177 
29.8714 -141.443 738.8 -0.444325 0.527986 -0.723744 204 180 178 
30.535 -141.003 736.5 -0.755392 0.622977 -0.203179 205 181 179 
31.2279 -140.716 735 -0.920475 0.346843 -0.180069 206 182 180 
31.8219 -140.007 731.3 -0.97616 0.0516765 -0.21081 207 183 181 
32.8716 -141.29 738 0.300802 0.477035 -0.825806 207 183 181 
33.4794 -140.658 734.7 -0.96613 -0.072652 -0.247618 208 184 182 
34.1409 -140.275 732.7 -0.188291 0.0646401 -0.979984 209 185 183 
35.108 -141.137 737.2 0.211816 -0.0837916 -0.973711 211 187 185 
35.7728 -140.773 735.3 -0.659761 0.158325 -0.734607 211 187 185 
36.5282 -140.773 735.3 0.386848 -0.632484 -0.671053 212 188 186 
37.3089 -140.869 735.8 -0.612472 -0.455791 -0.645858 213 189 187 
37.8941 -140.237 732.5 -0.94193 0.322907 -0.0921871 214 190 188 
38.4778 -139.624 729.3 -0.710236 0.501104 -0.494428 215 191 189 
39.2861 -139.835 730.4 0.109033 0.186465 -0.976393 216 192 190 
39.9268 -139.452 728.4 0.764244 -0.276236 -0.582774 217 193 191 
40.8427 -140.027 731.4 0.639856 -0.650819 -0.408679 219 193 194 
41.6281 -140.141 732 0.297073 -0.66789 -0.682401 219 193 194 
42.3049 -139.893 730.7 -0.200627 0.883243 -0.423828 220 194 195 
43.1144 -140.084 731.7 -0.737935 0.669349 -0.0861607 221 195 196 
43.6383 -139.356 727.9 0.567543 0.566314 -0.597649 222 196 197 
44.63 -140.122 731.9 0.94573 0.0176656 -0.324473 222 196 197 
45.7167 -141.156 737.3 0.579077 -0.743717 -0.334 224 198 199 
46.0707 -139.931 730.9 0.740234 -0.566533 -0.362069 224 198 199 
47.1354 -140.869 735.8 -0.116715 -0.518833 -0.846871 224 200 198 
47.5789 -139.95 731 -0.909008 0.0848453 -0.408051 224 200 198 
48.3695 -140.065 731.6 -0.603172 0.187959 -0.775148 226 202 202 
49.0808 -139.95 731 0.717722 -0.182485 -0.671993 228 204 204 
50.0226 -140.486 733.8 0.739348 -0.067433 -0.669939 231 206 209 
50.7557 -140.429 733.5 -0.925959 0.233737 -0.296592 232 207 211 
51.2564 -139.739 729.9 0.171898 -0.658736 -0.732473 233 208 212 
52.2057 -140.275 732.7 -0.353706 -0.697517 -0.623187 233 211 213 
52.7633 -139.758 730 0.177194 -0.796582 -0.577979 233 211 213 
53.8944 -140.754 735.2 0.403276 -0.762822 -0.505441 234 212 214 
54.5828 -140.582 734.3 0.17432 -0.683934 -0.708412 235 213 215 
55.4954 -140.984 736.4 0.0546339 -0.411123 -0.909941 237 215 217 
55.7859 -139.816 730.3 0.588529 -0.743416 -0.317751 237 215 217 
56.7994 -140.467 733.7 0.803123 -0.301585 -0.513849 237 215 217 
57.608 -140.601 734.4 0.5854 -0.407522 -0.70088 237 215 217 
58.4737 -140.869 735.8 -0.351724 -0.45285 -0.819278 237 215 217 
59.1169 -140.601 734.4 -0.74206 0.652242 -0.154682 238 216 218 
59.7898 -140.409 733.4 0.615822 0.531597 -0.581522 239 217 219 
60.6588 -140.677 734.8 0.730778 -0.040342 -0.681422 240 218 220 
61.4053 -140.658 734.7 -0.78829 0.351891 -0.504749 240 218 220 
62.0924 -140.505 733.9 0.402717 -0.0575526 -0.913513 240 218 220 
62.9662 -140.773 735.3 0.264118 -0.369771 -0.890792 240 218 220 
63.6436 -140.601 734.4 0.243499 -0.574021 -0.781798 240 218 220 
64.626 -141.099 737 0.697326 -0.364726 -0.617018 241 217 217 
65.3654 -141.06 736.8 0.406704 -0.230078 -0.884113 241 217 217 
66.2749 -141.386 738.5 0.644546 -0.638856 -0.420028 241 217 217 
67.1061 -141.539 739.3 -0.350654 -0.676656 -0.64744 241 217 217 
67.6178 -141.022 736.6 -0.657629 0.657333 -0.368017 241 217 217 
68.4116 -141.099 737 0.598645 -0.161292 -0.784608 241 217 217 
69.1593 -141.079 736.9 -0.57672 0.791917 -0.200653 241 217 217 
69.9069 -141.06 736.8 0.765929 0.543552 -0.343371 243 217 218 
71.0186 -141.769 740.5 0.739161 -0.408049 -0.535852 243 217 218 
71.7599 -141.73 740.3 0.182737 -0.852597 -0.489577 244 218 219 
72.6184 -141.922 741.3 0.0262797 -0.881525 -0.471405 245 219 220 
73.3206 -141.807 740.7 0.422246 -0.724945 -0.54421 246 220 221 
74.2215 -142.075 742.1 0.521175 -0.491771 -0.697523 246 220 221 
75.2061 -142.496 744.3 0.38323 0.834952 -0.394957 246 220 221 
75.9299 -142.42 743.9 -0.50454 -0.0299221 -0.86287 246 220 221 
76.5498 -142.152 742.5 0.0714707 -0.815713 -0.574025 246 220 221 
77.2397 -142.018 741.8 0.638112 -0.499095 -0.586274 247 221 222 
78.4118 -142.764 745.7 0.501579 -0.463042 -0.73076 248 222 223 
78.9655 -142.381 743.7 0.0990768 -0.49517 -0.863128 249 223 224 
79.9011 -142.688 745.3 0.862514 2.99535e-05 -0.506034 249 223 224 
80.6992 -142.745 745.6 0.0890177 0.843357 -0.52993 249 223 224 
81.4761 -142.764 745.7 0.425988 -0.667774 -0.610419 249 223 224 
82.4737 -143.166 747.8 0.371945 -0.743391 -0.555901 250 224 225 
83.2419 -143.166 747.8 0.535742 -0.717851 -0.4446 250 224 225 
84.3472 -143.741 750.8 0.574838 -0.66235 -0.480473 250 224 225 
85.1525 -143.798 751.1 -0.786009 -0.116613 -0.607117 250 224 225 
85.7296 -143.473 749.4 -0.257194 -0.696607 -0.669769 251 225 226 
5.64644 -142.246 747 0.902065 -0.03535 -0.43015 173 145 142 
6.43615 -142.741 749.6 0.465285 -0.669884 -0.578589 172 147 143 
7.19468 -142.512 748.4 -0.923416 0.136894 -0.358556 174 149 145 
7.91137 -141.579 743.5 -0.600413 0.79762 -0.0575034 175 150 146 
8.68683 -141.77 744.5 0.43984 -0.733263 -0.518523 176 151 147 
9.48085 -142.208 746.8 0.470748 -0.794842 -0.382913 177 152 148 
10.1877 -141.37 742.4 0.295051 0.126305 -0.947097 179 154 150 
10.9385 -141.217 741.6 -0.71385 0.526147 -0.462156 180 155 151 
11.6988 -141.198 741.5 0.653238 -0.451823 -0.607566 181 155 154 
12.4672 -141.275 741.9 -0.226028 0.815759 -0.532399 182 156 155 
13.2258 -141.237 741.7 0.485652 0.0892915 -0.86958 183 157 156 
14.0312 -141.674 744 0.0727896 -0.844427 -0.530702 184 158 157 
14.7815 -141.541 743.3 0.0517141 -0.829893 -0.555521 185 159 158 
15.5389 -141.484 743 -0.381533 -0.65929 -0.647896 185 159 158 
16.3065 -141.522 743.2 -0.952771 0.0648623 -0.296681 186 160 159 
16.9827 -140.799 739.4 -0.835753 0.312562 -0.451466 187 161 160 
17.7375 -140.76 739.2 -0.529912 0.476985 -0.701198 188 162 161 
18.4619 -140.494 737.8 -0.836863 0.114043 -0.535401 188 162 161 
19.2146 -140.456 737.6 -0.218719 -0.383252 -0.897374 189 163 162 
19.994 -140.608 738.4 0.485778 -0.712977 -0.505651 190 164 163 
20.7666 -140.703 738.9 0.333 0.64868 -0.684343 192 166 165 
21.5373 -140.779 739.3 0.259147 0.956086 -0.136904 193 167 166 
22.2908 -140.741 739.1 -0.26232 0.96207 -0.0749001 194 168 167 
23.0157 -140.532 738 -0.349791 0.936162 -0.0353046 195 169 168 
23.7417 -140.342 737 -0.445428 0.890806 -0.0897679 196 170 169 
24.4788 -140.227 736.4 -0.578731 0.205398 -0.789228 196 170 169 
25.2182 -140.132 735.9 -0.748417 -0.400586 -0.528585 197 171 170 
25.9107 -139.789 734.1 0.595992 -0.414562 -0.6877 198 172 171 
26.7883 -140.437 737.5 0.812308 -0.135092 -0.567367 199 173 172 
27.4862 -140.132 735.9 -0.235768 -0.589042 -0.772945 200 174 173 
28.269 -140.265 736.6 -0.524019 0.060058 -0.849586 203 177 176 
29.0415 -140.342 737 0.0626799 0.50553 -0.860529 202 178 176 
29.7582 -140.151 736 -0.0910478 -0.831768 -0.547607 203 179 177 
30.5972 -140.532 738 0.141708 -0.761976 -0.631911 204 180 178 
31.3213 -140.38 737.2 -0.822377 0.480323 -0.304936 204 180 178 
31.9046 -139.618 733.2 -0.783807 0.619026 -0.0495217 206 182 180 
32.5732 -139.256 731.3 -0.630425 0.751635 -0.193932 206 182 180 
33.3655 -139.427 732.2 0.387325 0.000976841 -0.921943 207 183 181 
34.0524 -139.161 730.8 -0.813356 0.494527 -0.306425 208 184 182 
35.108 -140.38 737.2 0.184973 -0.695578 -0.694231 210 186 184 
35.7631 -139.98 735.1 -0.843743 -0.374863 -0.384155 210 186 184 
36.4885 -139.865 734.5 -0.279912 -0.832681 -0.477798 211 187 185 
37.1872 -139.656 733.4 0.245034 -0.857326 -0.452714 212 188 186 
38.0441 -140.037 735.4 -0.896731 -0.197253 -0.396188 213 189 187 
38.5516 -139.142 730.7 -0.842671 0.462133 -0.276293 214 190 188 
39.3937 -139.466 732.4 -0.76864 0.295662 -0.567254 215 191 189 
39.9543 -138.799 728.9 -0.890736 0.0224527 -0.453966 215 191 189 
40.7421 -138.932 729.6 0.781531 -0.335164 -0.526189 218 192 193 
41.486 -138.913 729.5 0.66792 -0.527934 -0.524565 218 192 193 
42.5133 -139.827 734.3 0.427325 0.831368 -0.355275 219 193 194 
43.2735 -139.846 734.4 -0.530449 0.843919 -0.0801536 220 194 195 
43.7642 -139.009 730 -0.446334 0.892516 -0.0648132 221 195 196 
44.6727 -139.504 732.6 0.854492 0.205374 -0.477142 220 194 195 
45.4935 -139.713 733.7 0.733899 -0.526439 -0.429247 221 195 196 
46.4237 -140.246 736.5 0.029157 -0.490023 -0.871222 222 198 196 
47.0073 -139.732 733.8 -0.738662 -0.388088 -0.55115 222 198 196 
47.6049 -139.275 731.4 -0.753243 -0.369366 -0.544237 223 199 197 
48.4819 -139.637 733.3 -0.000106056 2.12499e-05 -1 226 202 202 
49.0607 -139.142 730.7 0.142257 0.726794 -0.671962 226 202 202 
49.9613 -139.561 732.9 0.55008 0.0176806 -0.834925 228 203 206 
50.6381 -139.351 731.8 -0.759657 -0.406474 -0.507642 230 205 209 
51.2845 -139.066 730.3 -0.728391 -0.420176 -0.541202 231 206 210 
52.1131 -139.275 731.4 0.120363 -0.783337 -0.609832 230 208 210 
52.691 -138.818 729 0.726446 -0.294885 -0.620741 231 209 211 
53.7918 -139.732 733.8 0.841424 -0.355178 -0.407252 232 210 212 
54.6423 -139.98 735.1 0.298368 -0.760465 -0.576774 233 211 213 
55.4878 -140.208 736.3 -0.142088 -0.764327 -0.628979 235 213 215 
55.9692 -139.523 732.7 -0.859396 -0.347079 -0.375465 235 213 215 
56.931 -140.037 735.4 0.540217 -0.729167 -0.420096 235 213 215 
57.8512 -140.437 737.5 -0.257801 0.920978 -0.292126 235 213 215 
58.434 -140.018 735.3 0.00165146 -0.472459 -0.881351 236 214 216 
59.2215 -140.094 735.7 -0.565062 0.494423 -0.660493 237 215 217 
59.855 -139.808 734.2 -0.281709 0.797538 -0.533454 238 216 218 
60.7331 -140.094 735.7 0.780172 0.0629226 -0.622392 239 217 219 
61.5307 -140.189 736.2 -0.758353 0.333607 -0.560006 239 217 219 
62.1262 -139.827 734.3 -0.198581 0.331115 -0.922458 239 217 219 
62.9491 -139.98 735.1 -1.6649e-05 0.268824 -0.963189 239 217 219 
63.6349 -139.827 734.3 -0.614049 -2.5699e-05 -0.789268 239 217 219 
64.3542 -139.751 733.9 0.345535 -0.719806 -0.602067 240 216 216 
65.2323 -140.018 735.3 0.250609 -0.786903 -0.563896 240 216 216 
65.9069 -139.846 734.4 0.313134 -0.774569 -0.549536 240 216 216 
66.8611 -140.265 736.6 0.406078 -0.812075 -0.419088 240 216 216 
67.7555 -140.551 738.1 0.443081 -0.725695 -0.526351 240 216 216 
68.6808 -140.894 739.9 0.794247 -0.380904 -0.473375 240 216 216 
69.6474 -141.313 742.1 0.0874117 -0.821629 -0.563281 240 216 216 
70.2105 -140.913 740 -0.70031 0.646823 -0.30197 242 216 217 
70.9227 -140.818 739.5 -0.0906938 -0.419438 -0.903242 242 216 217 
71.537 -140.532 738 -0.520432 -0.647698 -0.556451 243 217 218 
72.2266 -140.399 737.3 0.0935573 -0.826724 -0.554774 244 218 219 
73.0236 -140.475 737.7 0.665043 -0.581775 -0.468247 245 219 220 
74.1315 -141.141 741.2 0.294969 -0.589374 -0.752084 245 219 220 
74.6807 -140.741 739.1 -0.957437 -0.0125777 -0.288367 245 219 220 
75.2563 -140.399 737.3 0.839893 0.395462 -0.371738 245 219 220 
76.3127 -140.951 740.2 0.833918 -0.220005 -0.506141 245 219 220 
77.4063 -141.56 743.4 0.665067 -0.490377 -0.563219 246 220 221 
78.3593 -141.903 745.2 0.718263 -0.45906 -0.522841 247 221 222 
78.9761 -141.636 743.8 0.0561855 -0.339673 -0.938864 248 222 223 
79.9332 -141.979 745.6 0.91735 -0.0190196 -0.397626 248 222 223 
81.1646 -142.798 749.9 0.0942228 0.983091 -0.157017 248 222 223 
81.8148 -142.589 748.8 -0.239513 0.969496 -0.0520643 248 222 223 
4.8686 -141.175 745.4 0.460751 -0.754653 -0.467126 169 139 137 
5.65248 -141.63 747.8 0.266411 -0.832017 -0.486592 172 144 141 
6.41898 -141.592 747.6 0.000158831 -0.841963 -0.539535 171 146 142 
7.17929 -141.44 746.8 0.031767 -0.849383 -0.52682 173 148 144 
7.95393 -141.573 747.5 -0.834791 0.445108 -0.324042 174 149 145 
8.69266 -141.1 745 -0.789926 0.561182 -0.247169 174 149 145 
9.43261 -140.721 743 -0.774573 -0.183136 -0.60539 175 150 146 
10.1726 -140.399 741.3 0.831982 0.0722756 -0.550075 177 152 148 
10.968 -140.834 743.6 0.853572 -0.193905 -0.483544 178 153 149 
11.784 -141.459 746.9 0.728302 -0.617531 -0.297038 180 154 153 
12.4975 -140.853 743.7 0.320464 -0.601911 -0.731441 181 155 154 
13.2793 -141.043 744.7 0.110149 0.0423183 -0.993014 182 156 155 
14.0048 -140.645 742.6 -0.726828 0.201638 -0.656554 183 157 156 
14.7577 -140.55 742.1 -0.175215 -0.787673 -0.590652 182 156 155 
15.5389 -140.721 743 0.167543 -0.811151 -0.560325 183 157 156 
16.2912 -140.626 742.5 -0.831691 -0.332406 -0.444743 184 158 157 
16.9735 -139.963 739 -0.517752 0.0573726 -0.853605 185 159 158 
17.7927 -140.437 741.5 0.102319 0.905039 -0.412839 185 159 158 
18.5219 -140.19 740.2 -0.739601 0.641405 -0.203938 186 160 159 
19.2432 -139.906 738.7 -0.893342 0.220827 -0.391375 187 161 160 
19.9615 -139.622 737.2 0.000228877 -0.76268 -0.646776 188 162 161 
20.7469 -139.812 738.2 0.628658 -0.628148 -0.458497 191 165 164 
21.6335 -140.645 742.6 0.852856 0.414566 -0.317447 192 166 165 
22.4295 -140.853 743.7 -0.0467596 0.835799 -0.54704 193 167 166 
23.1654 -140.683 742.8 -0.633879 0.720186 -0.282009 194 168 167 
23.8931 -140.475 741.7 -0.518169 0.854174 -0.0434488 193 167 166 
24.5254 -139.736 737.8 -0.656177 0.735147 -0.170267 194 168 167 
25.1976 -139.262 735.3 -0.628534 0.756959 -0.17877 195 169 168 
25.9001 -138.978 733.8 0.0358829 0.929876 -0.36612 196 170 169 
26.7665 -139.565 736.9 0.922169 -0.00764143 -0.386713 197 171 170 
27.5422 -139.66 737.4 -0.656794 0.574656 -0.488254 200 174 173 
28.2613 -139.471 736.4 -0.469439 -0.0586757 -0.881013 201 175 174 
29.0139 -139.452 736.3 0.133013 -0.665091 -0.73482 200 176 174 
29.7865 -139.528 736.7 -0.892154 -0.209946 -0.399979 200 176 174 
30.3899 -138.827 733 -0.614192 -0.535421 -0.579735 201 177 175 
31.1344 -138.789 732.8 0.663836 -0.572174 -0.4816 202 178 176 
32.0221 -139.376 735.9 -0.426709 -0.662821 -0.615295 203 179 177 
32.6845 -138.978 733.8 -0.795829 0.536229 -0.281272 204 180 178 
33.3336 -138.543 731.5 0.378146 0.709129 -0.595098 205 181 179 
34.2341 -139.149 734.7 0.610675 0.703924 -0.362721 206 182 180 
34.9508 -138.997 733.9 -0.162343 0.882044 -0.442316 207 183 181 
35.7388 -139.13 734.6 -0.912281 -0.102596 -0.396506 208 184 182 
36.3196 -138.467 731.1 -0.877137 -0.0114247 -0.480103 209 185 183 
37.0503 -138.391 730.7 -0.235965 -0.593578 -0.769406 210 186 184 
37.8889 -138.713 732.4 0.365727 -0.778066 -0.510742 210 184 183 
38.5727 -138.467 731.1 -0.937874 -0.0342668 -0.345279 211 185 184 
39.3184 -138.448 731 -0.289963 -0.396086 -0.871228 213 187 186 
39.9214 -137.937 728.3 -0.92 0.330613 -0.210464 215 189 188 
40.6528 -137.88 728 0.640024 -0.506683 -0.577617 216 190 189 
41.6395 -138.675 732.2 0.679402 0.161844 -0.715695 216 190 189 
42.577 -139.281 735.4 0.431508 -0.778771 -0.45532 217 191 190 
43.3089 -139.206 735 -0.691777 -0.384282 -0.611368 218 192 191 
43.992 -138.978 733.8 -0.68858 0.51652 -0.508984 219 193 192 
44.7275 -138.922 733.5 -0.226901 0.956432 -0.18372 219 193 192 
45.2888 -138.334 730.4 -0.717273 0.689756 -0.0987766 220 194 193 
46.4615 -139.603 737.1 -0.3019 -0.695958 -0.651535 220 196 194 
47.0393 -139.073 734.3 -0.977568 -0.0404848 -0.206694 220 196 194 
47.618 -138.562 731.6 -0.889074 -0.0559689 -0.454328 221 197 193 
48.3232 -138.429 730.9 0.0413115 -0.661167 -0.749101 222 198 196 
49.1278 -138.581 731.7 0.31715 -0.747049 -0.584238 224 200 198 
50.0295 -138.997 733.9 0.383928 -0.671477 -0.633812 229 205 205 
50.6519 -138.637 732 -0.890554 -0.193671 -0.411589 229 204 207 
51.2915 -138.334 730.4 -0.809618 0.344252 -0.475405 230 205 208 
51.8994 -137.956 728.4 -0.552628 0.442116 -0.706495 230 205 208 
52.7199 -138.145 729.4 0.709894 -0.272479 -0.649466 232 208 208 
53.7845 -138.959 733.7 0.736226 0.577084 -0.353477 232 208 208 
54.4787 -138.808 732.9 -0.71227 0.281708 -0.642894 233 209 209 
55.1713 -138.656 732.1 0.192291 -0.804252 -0.56232 235 211 211 
56.0304 -138.922 733.5 -0.776581 -0.413961 -0.474929 235 211 211 
56.5981 -138.467 731.1 -0.0306787 -0.793632 -0.607624 235 211 211 
57.3727 -138.524 731.4 0.478889 -0.593412 -0.646937 235 211 211 
58.2591 -138.846 733.1 0.565267 -0.625679 -0.537586 235 211 211 
59.1893 -139.262 735.3 0.553686 -0.582784 -0.594806 236 212 212 
59.9773 -139.338 735.7 -0.551053 -0.165113 -0.817972 236 212 212 
60.6671 -139.187 734.9 0.55239 -0.298715 -0.778225 237 213 213 
61.4889 -139.338 735.7 -0.551924 0.0987317 -0.828029 237 213 213 
62.067 -138.94 733.6 -0.302496 0.3459 -0.888172 237 213 213 
63.0005 -139.338 735.7 0.110627 0.109898 -0.987767 237 213 213 
63.6349 -139.073 734.3 -0.658601 -0.0178322 -0.752281 237 213 213 
64.3893 -139.073 734.3 0.250579 0.769244 -0.58777 237 213 213 
65.0549 -138.884 733.3 0.429552 0.315024 -0.846312 237 213 211 
65.9967 -139.281 735.4 -0.540599 0.720921 -0.433619 237 213 211 
66.7067 -139.187 734.9 0.0620814 -0.186115 -0.980565 237 213 211 
67.4525 -139.168 734.8 0.451953 -0.7169 -0.530841 237 213 211 
68.3838 -139.528 736.7 0.594507 -0.697502 -0.400065 238 214 212 
69.4221 -140.096 739.7 0.436485 -0.802561 -0.406665 239 215 213 
70.22 -140.172 740.1 -0.489329 -0.7562 -0.434417 241 215 216 
70.7693 -139.755 737.9 -0.292139 -0.674238 -0.678276 241 215 216 
71.5079 -139.717 737.7 -0.265767 0.645333 -0.71618 242 216 217 
72.2364 -139.66 737.4 0.197017 0.936268 -0.290839 243 217 218 
73.0632 -139.793 738.1 0.633435 0.736571 -0.237113 243 217 218 
74.1415 -140.399 741.3 0.532454 0.752598 -0.387412 244 218 219 
74.7009 -140.02 739.3 -0.723016 0.681676 -0.112098 244 218 219 
75.2971 -139.717 737.7 0.470862 0.81743 -0.331808 245 219 220 
76.4879 -140.512 741.9 0.861834 0.266539 -0.431508 245 219 222 
77.3022 -140.607 742.4 0.10729 -0.655791 -0.747279 245 219 222 
77.8861 -140.285 740.7 -0.257654 -0.618274 -0.742531 246 220 223 
78.4877 -140.001 739.2 -0.486028 0.873444 -0.0295238 247 221 224 
79.8367 -141.043 744.7 0.805856 0.0683448 -0.588154 248 222 225 
81.3053 -142.274 751.2 -0.692206 0.692213 -0.204185 247 221 224 
81.9349 -142.028 749.9 -0.514848 -0.535776 -0.669235 247 221 224 
4.86533 -140.315 744.9 -0.844088 0.210371 -0.493214 167 137 135 
5.62905 -140.278 744.7 0.658428 -0.527232 -0.537121 169 139 137 
6.39837 -140.372 745.2 -0.554615 -0.381277 -0.739615 167 142 135 
7.15815 -140.259 744.6 -0.00810757 -0.849196 -0.528016 169 144 137 
7.94222 -140.598 746.4 0.315744 -0.828921 -0.461731 171 146 141 
8.70083 -140.466 745.7 -0.867255 -0.157651 -0.472244 173 148 143 
9.44149 -140.089 743.7 -0.914604 0.228645 -0.333497 174 149 144 
10.1822 -139.769 742 -0.617608 -0.0508817 -0.784838 176 151 146 
10.9695 -140.089 743.7 0.460133 -0.736257 -0.496189 177 152 147 
11.7398 -140.165 744.1 0.0726937 -0.893996 -0.442139 179 153 152 
12.4572 -139.637 741.3 -0.537807 -0.73047 -0.420924 179 153 152 
13.2044 -139.487 740.5 0.382339 -0.838193 -0.388909 180 154 153 
14.0198 -140.033 743.4 0.287611 -0.741205 -0.606543 181 155 154 
14.7477 -139.694 741.6 -0.642917 -0.548089 -0.535029 182 156 155 
15.4698 -139.336 739.7 0.0725688 -0.845708 -0.528689 182 156 155 
16.2605 -139.6 741.1 0.217613 -0.6913 -0.689021 183 157 156 
16.9827 -139.279 739.4 -0.216968 0.805933 -0.550816 184 158 157 
17.8167 -139.863 742.5 0.735121 0.16171 -0.658368 186 158 157 
18.5444 -139.6 741.1 -0.919013 0.269382 -0.287834 187 159 158 
19.2328 -139.072 738.3 -0.943927 0.232689 -0.234219 189 161 160 
19.9182 -138.564 735.6 -0.733011 0.408475 -0.543914 191 163 162 
20.6795 -138.601 735.8 0.417174 0.298016 -0.858576 191 163 162 
21.4499 -138.695 736.3 0.881237 -0.0828692 -0.465354 192 164 163 
22.3541 -139.618 741.2 0.549991 -0.741043 -0.385182 192 164 163 
23.0999 -139.524 740.7 -0.359391 -0.829038 -0.428409 193 165 164 
23.8125 -139.242 739.2 -0.532835 -0.765088 -0.361562 193 167 166 
24.4655 -138.639 736 0.0931753 -0.87325 -0.47828 194 168 167 
25.2902 -139.016 738 0.212579 -0.745642 -0.631528 194 168 167 
26.0554 -139.053 738.2 -0.679155 0.186987 -0.709778 195 169 168 
26.7738 -138.846 737.1 0.303971 -0.342456 -0.889002 196 170 169 
27.5795 -139.091 738.4 -0.662373 0.280061 -0.694858 197 171 170 
28.2537 -138.677 736.2 -0.827437 -0.371469 -0.421141 198 172 171 
28.9745 -138.507 735.3 -0.144524 -0.843617 -0.51713 200 174 173 
29.7299 -138.507 735.3 -0.392403 -0.767743 -0.506548 200 174 173 
30.3774 -138.017 732.7 -0.768727 -0.307104 -0.561022 201 175 174 
31.1726 -138.206 733.7 -0.261764 -0.506518 -0.821535 201 175 174 
31.9177 -138.168 733.5 0.296775 -0.761646 -0.576038 203 177 176 
32.591 -137.829 731.7 -0.380534 -0.326364 -0.865263 203 177 176 
33.4384 -138.225 733.8 -0.0223611 0.180692 -0.983285 204 178 177 
34.1782 -138.168 733.5 0.734928 -0.456003 -0.501939 205 179 178 
35.0508 -138.639 736 0.350359 -0.579553 -0.735777 206 180 179 
35.768 -138.488 735.2 -0.364869 0.555752 -0.747001 207 181 180 
36.4189 -138.093 733.1 -0.444394 0.888957 -0.110766 208 182 181 
37.2126 -138.243 733.9 -0.580334 0.808592 -0.0969057 208 182 181 
37.8062 -137.659 730.8 0.133863 0.264868 -0.954948 210 184 183 
38.6624 -138.036 732.8 -0.824755 0.296241 -0.481685 211 185 184 
39.2324 -137.396 729.4 -0.0444732 0.224919 -0.973362 212 186 185 
40.1077 -137.829 731.7 -0.682409 0.691637 -0.236549 214 188 187 
40.6751 -137.207 728.4 -0.810225 0.575586 -0.110617 215 189 188 
41.8442 -138.601 735.8 -0.985128 0.117305 -0.125547 215 189 188 
42.3454 -137.772 731.4 -0.093747 -0.736312 -0.670116 216 190 189 
43.2264 -138.187 733.6 -0.209443 -0.860059 -0.465223 217 191 190 
43.8421 -137.754 731.3 -0.0126013 -0.893165 -0.449553 218 192 191 
44.7519 -138.243 733.9 0.661921 -0.628798 -0.408011 218 192 191 
45.5989 -138.526 735.4 -0.812613 0.517052 -0.268918 219 193 192 
46.1778 -137.998 732.6 -0.467009 -0.734429 -0.49246 220 194 193 
47.0009 -138.206 733.7 -0.331469 -0.853476 -0.402127 220 196 192 
47.5464 -137.603 730.5 -0.0108488 -0.858828 -0.512149 221 197 193 
48.3761 -137.829 731.7 -0.027748 -0.436584 -0.899235 222 198 196 
49.007 -137.49 729.9 -0.073182 -0.882316 -0.464933 224 200 198 
49.7568 -137.49 729.9 0.275862 -0.848712 -0.451207 227 203 203 
50.562 -137.641 730.7 -0.670119 -0.118095 -0.732799 229 204 207 
51.2354 -137.433 729.6 0.305217 -0.060668 -0.950348 229 204 207 
52.1701 -137.923 732.2 -0.550255 0.628699 -0.549506 230 206 206 
52.7705 -137.528 730.1 0.177378 0.609468 -0.772713 231 207 207 
53.9677 -138.677 736.2 -0.184198 -0.738817 -0.648245 232 208 208 
54.672 -138.545 735.5 -0.625539 0.747617 -0.223093 232 208 208 
55.2467 -138.093 733.1 -0.495841 0.840224 -0.219466 234 210 210 
55.9845 -138.055 732.9 -0.781312 0.448435 -0.434117 234 210 210 
56.5749 -137.659 730.8 -0.715721 -0.0810405 -0.693669 234 210 210 
57.4197 -137.885 732 0.829541 0.207168 -0.518598 234 210 210 
58.2194 -137.998 732.6 0.704006 0.533538 -0.468735 234 210 210 
59.1169 -138.338 734.4 0.356434 -0.598945 -0.717091 235 211 211 
59.8795 -138.356 734.5 -0.124957 -0.874626 -0.468417 236 212 212 
60.5763 -138.225 733.8 0.248524 -0.85133 -0.462031 236 212 212 
61.514 -138.639 736 0.42568 -0.733096 -0.530441 236 212 212 
62.2108 -138.507 735.3 -0.392108 -0.082051 -0.916253 236 212 212 
63.009 -138.601 735.8 -0.439995 -0.439934 -0.782855 236 212 212 
63.6176 -138.281 734.1 -0.577346 -0.677417 -0.455826 236 212 212 
64.3629 -138.262 734 0.652864 -0.631462 -0.418359 236 212 210 
65.4718 -139.016 738 0.925019 0.132202 -0.356177 236 212 210 
66.3287 -139.223 739.1 -0.923028 0.382154 -0.0444696 236 212 210 
66.7703 -138.564 735.6 -0.491626 0.822406 -0.286273 236 212 210 
67.4617 -138.432 734.9 -0.362145 0.900342 -0.241318 236 212 210 
68.2816 -138.564 735.6 0.764018 -0.218262 -0.607155 238 214 212 
69.1406 -138.771 736.7 0.539096 -0.604124 -0.586864 238 214 212 
69.9258 -138.827 737 0.40893 -0.551768 -0.726862 240 214 215 
70.5966 -138.658 736.1 0.040821 0.626324 -0.778493 240 214 215 
71.6436 -139.223 739.1 0.789658 -0.0904281 -0.606847 241 215 216 
72.5107 -139.43 740.2 0.839555 0.164001 -0.51793 242 216 217 
73.4592 -139.788 742.1 0.690598 0.60347 -0.39862 242 216 217 
74.3215 -139.976 743.1 0.618189 0.537008 -0.573991 241 215 216 
75.0041 -139.826 742.3 -0.652497 0.725993 -0.217212 242 216 217 
75.6441 -139.6 741.1 -0.134498 0.938092 -0.319208 243 217 218 
76.5601 -139.882 742.6 -0.0424615 -0.106274 -0.99343 242 216 217 
77.0835 -139.449 740.3 -0.177703 -0.775459 -0.605876 243 217 218 
77.844 -139.449 740.3 0.404992 -0.389048 -0.82742 244 218 219 
78.7744 -139.75 741.9 -0.0314168 0.578891 -0.814799 245 219 220 
79.9547 -140.485 745.8 0.517977 -0.345492 -0.782518 246 220 221 
80.7858 -140.598 746.4 -0.193717 -0.789071 -0.582959 246 220 221 
81.4542 -140.428 745.5 -0.0476861 -0.924421 -0.37838 246 220 221 
82.2752 -140.523 746 0.117095 -0.871463 -0.476279 246 220 221 
83.0304 -140.504 745.9 -0.592047 0.789008 -0.164154 247 221 220 
84.4595 -141.615 751.8 0 0 0 247 221 220 
85.1865 -141.54 751.4 -0.963486 -0.179169 -0.198979 247 221 220 
85.6495 -141.031 748.7 -0.915 0.0666417 -0.397911 248 222 221 
86.234 -140.73 747.1 0.236538 0.947778 -0.213929 248 222 221 
87.0597 -140.824 747.6 0.146093 0.985114 -0.0905907 249 223 222 
87.9569 -141.031 748.7 0.804895 0.363443 -0.469098 250 224 223 
89.1527 -141.709 752.3 0.503499 -0.728631 -0.464313 250 226 224 
90.2363 -142.199 754.9 0 0 0 249 225 223 
1.04893 -140.862 751.9 0 0 0 156 126 124 
1.82232 -140.936 752.3 0 0 0 163 133 131 
4.8797 -139.962 747.1 0.142181 0.822217 -0.55113 168 138 136 
5.623 -139.363 743.9 0.833955 0.107307 -0.541298 168 138 136 
6.42155 -140.112 747.9 -0.293762 0.735026 -0.611098 167 142 135 
7.15718 -139.475 744.5 -0.936345 0.17368 -0.305112 169 144 137 
7.90392 -139.157 742.8 0.144646 -0.825022 -0.546274 171 146 139 
8.68916 -139.513 744.7 -0.0322559 -0.886242 -0.462098 172 147 142 
9.44276 -139.344 743.8 -0.524504 -0.71844 -0.45688 173 148 143 
10.1877 -139.082 742.4 -0.751061 -0.519358 -0.407644 175 150 146 
10.9223 -138.726 740.5 0.000137643 -0.865942 -0.500144 177 152 148 
11.6751 -138.632 740 -0.0193177 -0.811906 -0.583469 178 152 151 
12.4303 -138.576 739.7 -0.806363 -0.235581 -0.542476 178 152 151 
13.1688 -138.351 738.5 -0.0129585 -0.701309 -0.712739 179 153 152 
13.9765 -138.838 741.1 0.397667 -0.801158 -0.447222 180 154 153 
14.6781 -138.276 738.1 0.10304 -0.484703 -0.868588 181 155 154 
15.4489 -138.389 738.7 -0.219589 -0.63388 -0.741604 181 155 154 
16.2297 -138.576 739.7 0.606954 -0.686402 -0.400574 182 156 155 
17.0562 -139.119 742.6 0.42443 -0.58673 -0.689643 183 157 156 
17.8023 -138.988 741.9 -0.189699 -0.685182 -0.703235 186 158 157 
18.5419 -138.82 741 -0.595721 -0.622587 -0.507447 187 159 158 
19.2537 -138.464 739.1 -0.921635 0.118564 -0.369501 188 160 159 
19.9669 -138.145 737.4 -0.576257 0.680918 -0.451972 190 162 161 
20.761 -138.389 738.7 0.121541 0.550442 -0.825979 190 162 161 
21.5111 -138.332 738.4 0.0816663 -0.224419 -0.971065 191 163 162 
22.2817 -138.407 738.8 0.17972 -0.798259 -0.574877 192 164 163 
22.9347 -137.77 735.4 -0.758949 -0.466144 -0.454649 192 164 163 
23.6933 -137.789 735.5 -0.231088 -0.844967 -0.482317 192 166 165 
24.4124 -137.583 734.4 -0.491382 -0.747773 -0.446519 193 167 166 
25.1702 -137.602 734.5 0.46714 -0.754981 -0.4602 192 166 165 
25.9283 -137.621 734.6 -0.403907 -0.692187 -0.598111 193 167 166 
26.6575 -137.489 733.9 -0.424055 -0.784863 -0.45185 194 168 167 
27.3816 -137.34 733.1 0.223673 -0.825173 -0.518709 194 168 167 
28.2115 -137.714 735.1 -0.530456 -0.332325 -0.779857 195 169 168 
28.8642 -137.227 732.5 -0.807334 0.403671 -0.430421 196 170 169 
29.6207 -137.246 732.6 -0.359388 -0.45933 -0.812315 197 171 170 
30.3774 -137.265 732.7 -0.374755 -0.582897 -0.720965 199 173 172 
31.1471 -137.34 733.1 -0.663683 -0.500192 -0.556177 200 174 173 
31.7697 -136.778 730.1 0.328979 -0.795561 -0.508779 200 174 173 
32.7024 -137.546 734.2 0.778714 -0.259162 -0.571348 202 176 175 
33.4293 -137.433 733.6 -0.721587 0.314086 -0.616978 203 177 176 
34.1176 -137.171 732.2 0.168034 -0.629989 -0.758207 204 178 177 
34.9222 -137.377 733.3 0.382915 -0.70694 -0.594653 205 179 178 
35.6755 -137.377 733.3 0.0428833 -0.831177 -0.554352 205 179 178 
36.5878 -137.977 736.5 -0.0265084 0.760961 -0.648256 206 180 179 
37.314 -137.864 735.9 -0.645612 0.725857 -0.237311 207 181 180 
37.8424 -137.04 731.5 -0.629833 0.470713 -0.617851 208 182 181 
38.6519 -137.246 732.6 -0.105843 0.526264 -0.843708 209 183 182 
39.2808 -136.815 730.3 -0.725161 0.534505 -0.434103 211 185 184 
40.1461 -137.208 732.4 0.256009 0.064907 -0.964493 213 187 186 
40.7366 -136.665 729.5 -0.877539 0.19609 -0.437577 213 187 186 
41.7134 -137.414 733.5 0.217189 -0.854675 -0.471551 214 188 187 
42.3454 -137.021 731.4 -0.898423 -0.211 -0.385117 215 189 188 
43.1203 -137.096 731.8 -0.206298 -0.758364 -0.618324 216 190 189 
43.7282 -136.646 729.4 -0.608753 -0.39151 -0.690029 216 190 189 
44.5019 -136.721 729.8 0.686794 -0.576857 -0.44221 217 191 190 
45.5059 -137.489 733.9 0.500193 -0.766385 -0.403064 218 192 191 
46.0644 -136.909 730.8 -0.937257 -0.158549 -0.310501 219 193 192 
46.7383 -136.684 729.6 -0.854363 0.465201 -0.23163 220 196 192 
47.2665 -136.047 726.2 0.624028 0.249266 -0.740578 221 197 193 
48.2373 -136.684 729.6 0.298008 -0.772939 -0.56014 222 198 196 
48.7317 -135.972 725.8 -0.283146 0.65129 -0.704024 224 200 198 
49.4841 -135.991 725.9 0.0378843 -0.814117 -0.579464 226 202 202 
50.7073 -137.283 732.8 -0.563127 0.703489 -0.433578 227 202 205 
51.3547 -137.002 731.3 -0.469587 0.78272 -0.408457 228 203 206 
52.1131 -137.021 731.4 -0.590634 0.430303 -0.682635 229 205 205 
52.6838 -136.553 728.9 0.501398 0.0561148 -0.863395 229 205 205 
53.7112 -137.265 732.7 0.585747 -0.64048 -0.496674 230 206 206 
54.5084 -137.377 733.3 -0.303019 -0.83432 -0.460532 231 207 207 
54.9528 -136.609 729.2 -0.938079 0.344424 -0.0371414 233 209 209 
56.0991 -137.583 734.4 -0.952244 0.256612 -0.165474 233 209 209 
56.6291 -137.04 731.5 -0.922369 0.0307151 -0.385086 233 209 209 
57.3648 -137.002 731.3 0.791075 -0.395542 -0.466633 233 209 209 
58.4101 -137.695 735 0.734363 -0.31941 -0.598905 233 209 209 
59.141 -137.639 734.7 -0.786747 -0.348224 -0.509676 233 209 209 
59.6349 -137.04 731.5 -0.663161 -0.642045 -0.384702 234 210 210 
60.3038 -136.852 730.5 0.105842 -0.884059 -0.455234 235 211 211 
61.2047 -137.19 732.3 0.566318 -0.710617 -0.417502 235 211 211 
62.0924 -137.489 733.9 0.554861 -0.321052 -0.767499 235 211 211 
62.8977 -137.602 734.5 -0.80611 -0.161392 -0.569332 235 211 211 
63.4443 -137.152 732.1 -0.909545 0.0551908 -0.411925 235 211 211 
64.0297 -136.796 730.2 0.64374 -0.119977 -0.75578 235 211 209 
65.1702 -137.621 734.6 0.765995 -0.482098 -0.425244 235 211 209 
65.7633 -137.283 732.8 0.511763 0.78701 -0.344548 235 211 209 
66.6977 -137.658 734.8 0.742766 -0.00364202 -0.669541 235 211 209 
67.8473 -138.464 739.1 -0.676549 0.725736 -0.124852 235 211 209 
68.2724 -137.789 735.5 -0.088553 0.853732 -0.513128 236 212 210 
69.1687 -138.07 737 0.573492 0.678927 -0.458437 237 213 211 
69.9258 -138.07 737 0.812526 0.260229 -0.521615 238 212 213 
71.0666 -138.82 741 0.397217 0.506553 -0.76526 238 212 213 
71.6533 -138.482 739.2 -0.455741 0.104028 -0.884013 239 213 214 
72.3147 -138.295 738.2 0.518402 -0.620186 -0.588752 240 214 215 
73.3206 -138.763 740.7 0.662119 -0.574299 -0.481434 240 214 215 
74.1415 -138.876 741.3 0.69523 -0.419238 -0.583862 241 215 216 
75.0041 -139.063 742.3 -0.492754 0.473988 -0.729746 242 216 217 
75.6544 -138.857 741.2 -0.502432 0.675038 -0.540265 243 217 218 
76.3952 -138.82 741 -0.832959 0.3801 -0.402124 242 216 217 
76.8648 -138.295 738.2 -0.680826 -0.400283 -0.613391 242 216 217 
77.8756 -138.745 740.6 0.661814 -0.5386 -0.521452 243 217 218 
78.7532 -138.951 741.7 0.199891 -0.34551 -0.916879 244 218 219 
79.3221 -138.613 739.9 0.184165 -0.394779 -0.900129 245 219 220 
80.5801 -139.475 744.5 0.435883 -0.756736 -0.487193 245 219 220 
81.1701 -139.175 742.9 -0.796501 -0.41315 -0.441467 245 219 220 
81.8451 -139.026 742.1 -0.0129579 -0.841612 -0.539927 245 219 220 
83.2085 -140.037 747.5 -0.630376 -0.360207 -0.687661 246 220 219 
83.718 -139.606 745.2 -0.896821 -0.238127 -0.372836 246 220 219 
84.5176 -139.663 745.5 0.430031 -0.806649 -0.405452 246 220 219 
85.5923 -140.168 748.2 0.154281 -0.85699 -0.491696 247 221 220 
86.384 -140.206 748.4 0.667205 -0.434956 -0.60469 248 222 221 
87.4556 -140.693 751 0.751526 0.491249 -0.440321 249 223 222 
88.1919 -140.637 750.7 -0.177971 0.949505 -0.258391 250 224 223 
88.9038 -140.543 750.2 0.652736 0.356136 -0.668657 250 226 224 
89.5908 -140.412 749.5 -0.504552 0.790556 -0.347057 249 225 223 
-0.498755 -140.89 756.2 0 0 0 152 122 120 
4.11 -139.12 746.7 -0.228398 -0.850232 -0.474279 163 133 131 
4.87709 -139.12 746.7 0.730575 -0.595813 -0.333568 165 135 133 
5.67063 -139.772 750.2 0.377024 -0.79649 -0.472712 168 141 134 
6.42155 -139.344 747.9 -0.793681 -0.273949 -0.543159 167 142 135 
7.15622 -138.692 744.4 -0.970801 0.0386125 -0.236756 169 144 137 
7.90392 -138.394 742.8 -0.672289 -0.368012 -0.642335 171 146 141 
8.66116 -138.301 742.3 -0.551819 -0.635765 -0.539721 171 146 141 
9.40087 -137.965 740.5 -0.435535 -0.813363 -0.38568 172 147 143 
10.152 -137.835 739.8 -0.393114 -0.833272 -0.388741 174 149 145 
10.8766 -137.388 737.4 0.204117 -0.839165 -0.504121 175 150 146 
11.683 -137.965 740.5 0.673957 -0.516934 -0.52779 176 150 149 
12.4605 -138.151 741.5 -0.466477 -0.41958 -0.778686 177 151 150 
13.1973 -137.891 740.1 -0.866969 -0.0337028 -0.497222 178 152 151 
13.918 -137.499 738 0.118047 -0.48988 -0.863761 179 153 152 
14.6781 -137.518 738.1 0.520006 0.297508 -0.800676 179 153 152 
15.4824 -137.928 740.3 -0.65076 0.598207 -0.46761 180 154 153 
16.1793 -137.388 737.4 -0.229147 -0.70081 -0.675542 181 155 154 
16.9712 -137.667 738.9 0.441233 -0.803715 -0.399195 182 156 155 
17.7471 -137.797 739.6 -0.265856 -0.85994 -0.435687 184 156 155 
18.4719 -137.537 738.2 -0.0785601 -0.883936 -0.460961 185 157 156 
19.238 -137.593 738.5 -0.0890326 -0.700408 -0.708168 187 159 158 
19.994 -137.574 738.4 -0.780217 0.130027 -0.611845 188 160 159 
20.7272 -137.406 737.5 -0.680149 -0.494575 -0.541104 188 160 159 
21.4383 -137.108 735.9 -0.337717 -0.834786 -0.434832 189 161 160 
22.1852 -137.052 735.6 0.0363792 -0.895228 -0.444121 190 162 161 
22.9191 -136.922 734.9 -0.776814 -0.416197 -0.47259 191 163 162 
23.6386 -136.717 733.8 -0.332103 -0.664164 -0.669771 190 164 163 
24.3924 -136.717 733.8 -0.635778 -0.57983 -0.509492 191 165 164 
25.088 -136.4 732.1 0.547673 -0.675508 -0.493703 192 166 165 
26.0024 -137.257 736.7 0.384069 0.321255 -0.865613 193 167 166 
26.6575 -136.735 733.9 -0.949284 0.185603 -0.253793 193 167 166 
27.3405 -136.381 732 -0.214872 -0.715897 -0.664321 194 168 167 
28.1501 -136.661 733.5 0.618637 -0.682134 -0.389848 195 169 168 
29.01 -137.164 736.2 0.328587 -0.522608 -0.786709 197 171 170 
29.7299 -136.996 735.3 -0.790657 0.527269 -0.311207 197 171 170 
30.3774 -136.512 732.7 -0.800669 0.418179 -0.429017 198 172 171 
31.0834 -136.307 731.6 -0.1585 -0.0489659 -0.986144 199 173 172 
31.7523 -135.953 729.7 -0.0893727 -0.272733 -0.95793 199 173 172 
32.6044 -136.381 732 0.815747 -0.362087 -0.451054 201 175 174 
33.4475 -136.754 734 -0.25961 -0.758174 -0.598143 202 176 175 
34.0757 -136.251 731.3 -0.200822 -0.572035 -0.795265 203 177 176 
34.927 -136.642 733.4 0.582402 -0.41032 -0.701745 204 178 177 
35.6415 -136.493 732.6 -0.000734333 -0.222264 -0.974986 205 179 178 
36.2947 -136.121 730.6 0.412003 -0.66499 -0.62293 206 180 179 
37.2126 -136.735 733.9 -0.461729 -0.732923 -0.49963 207 181 180 
37.7906 -136.102 730.5 0.175299 -0.786036 -0.592805 208 182 181 
38.6519 -136.493 732.6 0.302562 -0.796641 -0.523277 209 183 182 
39.3991 -136.475 732.5 -0.583137 -0.40895 -0.701934 211 185 184 
40.0474 -136.121 730.6 -0.258244 -0.258359 -0.930892 212 186 185 
40.8259 -136.214 731.1 -0.730512 0.0490082 -0.681139 213 187 186 
41.5087 -135.99 729.9 0.724433 -0.453542 -0.519131 213 187 186 
42.3975 -136.437 732.3 -0.617674 -0.286055 -0.732565 214 188 187 
43.0084 -135.99 729.9 -0.629254 -0.104957 -0.77008 215 189 188 
43.7522 -135.972 729.8 -0.168819 0.135428 -0.976299 216 190 189 
44.63 -136.363 731.9 0.0363744 0.994753 -0.0956179 216 190 189 
45.3198 -136.177 730.9 -0.0779315 0.98636 -0.144981 217 191 190 
45.8753 -135.599 727.8 0 0 0 218 192 191 
46.9753 -136.624 733.3 -0.840831 0.532636 -0.0964511 220 196 192 
47.4748 -135.897 729.4 -0.872485 0.481834 -0.0812747 221 197 193 
48.1646 -135.729 728.5 -0.187494 -0.672307 -0.716135 222 198 196 
48.819 -135.469 727.1 -0.830657 0.0636066 -0.553139 224 200 198 
49.7431 -135.953 729.7 0.481957 0.843526 -0.237027 225 201 201 
50.6519 -136.381 732 0.698896 -0.0434047 -0.713906 227 202 205 
51.3618 -136.27 731.4 -0.754597 0.33173 -0.566161 228 203 206 
52.1345 -136.326 731.7 -0.219331 -0.279187 -0.934852 228 204 204 
52.8067 -136.121 730.6 -0.442133 0.127082 -0.887901 229 205 205 
53.7185 -136.531 732.8 0.504737 -0.607158 -0.613677 230 206 206 
54.3078 -136.121 730.6 -0.20093 -0.63094 -0.749361 231 207 207 
55.0658 -136.139 730.7 0.559716 0.481327 -0.674568 232 208 208 
56.1297 -136.903 734.8 -0.621058 0.739434 -0.259855 232 208 208 
56.5749 -136.158 730.8 -0.861393 0.498703 -0.0964265 232 208 208 
57.2707 -136.027 730.1 0.401884 -0.279819 -0.871889 232 208 208 
58.2274 -136.512 732.7 0.782983 -0.448467 -0.431062 232 208 208 
58.9398 -136.419 732.2 -0.825666 0.270802 -0.494917 233 209 209 
59.5452 -136.083 730.4 -0.925176 0.310935 -0.217644 234 210 210 
60.2048 -135.878 729.3 0.136944 0.607952 -0.782075 235 211 211 
61.0208 -136.027 730.1 0.796331 -0.047893 -0.602963 233 209 209 
62.2277 -137.034 735.5 0.193189 0.660636 -0.725423 233 209 209 
62.9919 -137.052 735.6 -0.901916 0.091399 -0.42213 233 209 209 
63.4963 -136.512 732.7 -0.134404 0.133936 -0.981833 233 209 209 
64.4331 -136.903 734.8 0.165183 0.96783 -0.189789 234 210 208 
65.1347 -136.791 734.2 0.183056 0.925882 -0.330504 234 210 208 
65.871 -136.754 734 0.546082 0.546958 -0.634532 234 210 208 
66.8429 -137.201 736.4 0.838196 -0.274442 -0.471284 234 210 208 
67.9207 -137.853 739.9 -0.335097 -0.833312 -0.43966 234 210 208 
68.2816 -137.052 735.6 -0.628648 0.583735 -0.513863 235 211 209 
69.3095 -137.593 738.5 0.830526 0.393802 -0.393886 236 212 210 
70.1441 -137.742 739.3 -0.381297 0.804201 -0.455932 237 211 212 
70.8268 -137.593 738.5 0.141099 -0.620224 -0.771631 238 212 213 
71.4594 -137.35 737.2 -0.387412 -0.38736 -0.836579 239 213 214 
72.256 -137.425 737.6 0.394202 0.157219 -0.905476 239 213 214 
73.1622 -137.704 739.1 0.731253 -0.448207 -0.514178 240 214 215 
74.0915 -138.021 740.8 0.767996 -0.465586 -0.439786 240 214 215 
75.1657 -138.599 743.9 0.493464 -0.377435 -0.783604 241 215 216 
75.7666 -138.301 742.3 -0.457196 0.166118 -0.873714 242 216 217 
76.591 -138.412 742.9 -0.60125 0.630615 -0.490738 241 215 216 
77.1147 -137.984 740.6 -0.84428 0.52916 -0.0847404 242 216 217 
77.6653 -137.611 738.6 0.661537 0.0296989 -0.749324 243 217 218 
78.5939 -137.909 740.2 0.851807 0.096881 -0.51482 243 217 218 
79.4508 -138.077 741.1 -0.112952 0.964064 -0.240465 244 218 219 
80.1796 -138.021 740.8 0.894272 -0.0298376 -0.446527 244 218 219 
81.334 -138.692 744.4 -0.235466 -0.0442599 -0.970874 244 218 219 
81.834 -138.245 742 -0.571532 0.423979 -0.702562 244 218 219 
82.7076 -138.431 743 0.663813 -0.519622 -0.537909 245 219 218 
83.6843 -138.785 744.9 -0.398555 -0.698712 -0.594101 245 219 218 
84.2115 -138.394 742.8 0.530476 -0.330608 -0.780573 245 219 218 
85.1805 -138.729 744.6 0.588379 -0.561933 -0.581414 247 221 220 
86.1186 -139.009 746.1 0.331415 -0.819965 -0.466713 247 221 220 
87.2227 -139.549 749 0.700153 -0.59753 -0.390824 248 222 221 
88.3094 -140.052 751.7 0.413738 -0.641261 -0.646224 249 223 222 
88.9275 -139.81 750.4 0.602548 -0.260044 -0.754528 250 226 224 
90.1048 -140.443 753.8 0.849988 -0.236888 -0.470537 249 225 223 
91.0359 -140.685 755.1 0.0624174 -0.770366 -0.63454 248 224 222 
91.7022 -140.518 754.2 0.0813629 -0.162863 -0.983288 247 223 221 
92.4402 -140.462 753.9 -0.477861 0.818972 -0.3177 248 224 222 
93.0663 -140.238 752.7 -0.592294 0.789274 -0.161971 248 224 222 
-0.498161 -139.947 755.3 0 0 0 147 118 114 
1.04753 -139.131 750.9 0 0 0 154 124 122 
4.10175 -138.075 745.2 -0.511574 0.681722 -0.523018 163 133 131 
4.86011 -137.871 744.1 0.636492 -0.274868 -0.720643 165 135 133 
5.64946 -138.483 747.4 0.336242 -0.816502 -0.469325 168 140 136 
6.40782 -138.279 746.3 -0.333133 -0.811135 -0.48071 167 142 135 
7.1668 -138.131 745.5 -0.968312 -0.0168042 -0.249176 169 144 137 
7.89008 -137.39 741.5 -0.766306 -0.122171 -0.630753 169 144 137 
8.65883 -137.501 742.1 -0.82247 -0.101395 -0.559698 170 145 140 
9.38056 -136.908 738.9 -0.91898 -0.175144 -0.353271 170 145 140 
10.1067 -136.463 736.5 -0.642012 -0.0336361 -0.765957 171 146 142 
10.8648 -136.482 736.6 0.649554 0.417152 -0.63566 173 148 144 
11.672 -137.075 739.8 0.886864 -0.0193751 -0.461625 175 149 148 
12.4252 -137.001 739.4 -0.733644 -0.128955 -0.667186 176 150 149 
13.1509 -136.649 737.5 -0.55396 -0.316436 -0.770063 177 151 150 
13.9161 -136.723 737.9 0.663989 0.44267 -0.602629 177 151 150 
14.7159 -137.112 740 0.581159 0.658392 -0.478302 178 152 151 
15.5012 -137.334 741.2 -0.788903 0.099329 -0.606436 179 153 152 
16.1705 -136.556 737 -0.922932 0.209551 -0.322931 180 154 153 
16.9253 -136.537 736.9 0.563251 -0.281581 -0.776827 180 154 153 
17.7087 -136.741 738 -0.465918 -0.579417 -0.668727 183 155 154 
18.4118 -136.334 735.8 -0.272082 -0.78864 -0.551378 184 156 155 
19.2172 -136.686 737.7 0.499299 -0.738942 -0.452399 186 158 157 
19.9967 -136.834 738.5 0.0184013 -0.376585 -0.926199 187 159 158 
20.7076 -136.519 736.8 -0.89809 0.373663 -0.23197 188 160 159 
21.38 -135.982 733.9 -0.948165 0.107044 -0.299207 188 160 159 
22.0977 -135.759 732.7 0.265064 -0.702886 -0.66007 189 161 160 
22.9191 -136.167 734.9 0.476476 -0.211813 -0.853291 190 162 161 
23.6289 -135.907 733.5 -0.709338 0.62827 -0.319555 190 164 163 
24.3625 -135.796 732.9 -0.790515 0.431241 -0.434876 190 164 163 
25.0366 -135.37 730.6 -0.782427 0.522544 -0.338757 191 165 164 
25.9883 -136.426 736.3 -0.0765372 -0.698029 -0.711968 192 166 165 
26.6793 -136.093 734.5 -0.947459 -0.184877 -0.26104 193 167 166 
27.3144 -135.5 731.3 -0.758559 -0.503192 -0.413989 193 167 166 
28.0579 -135.463 731.1 0.327409 -0.827966 -0.455274 194 168 167 
28.8602 -135.704 732.4 0.4528 -0.804464 -0.38446 195 169 168 
29.6611 -135.926 733.6 0.312017 -0.742835 -0.592319 197 171 170 
30.365 -135.704 732.4 -0.646902 0.659041 -0.383643 197 171 170 
31.1429 -135.815 733 0.797379 0.415226 -0.43792 198 172 171 
32.0308 -136.389 736.1 0.346447 -0.172883 -0.922001 200 174 173 
32.6667 -135.889 733.4 -0.903502 0.136938 -0.406119 201 175 174 
33.3245 -135.5 731.3 -0.0952863 -0.570141 -0.816002 202 176 175 
34.0524 -135.407 730.8 -0.496512 0.0398683 -0.867113 202 176 175 
34.8651 -135.648 732.1 0.698587 -0.439072 -0.564971 204 178 177 
35.6512 -135.778 732.8 0.506096 -0.291654 -0.811668 204 178 177 
36.5829 -136.445 736.4 -0.175387 -0.297972 -0.938324 205 179 178 
37.1416 -135.722 732.5 -0.824916 -0.412165 -0.386825 206 180 179 
37.7441 -135.185 729.6 -0.791421 -0.471492 -0.389034 207 181 180 
38.5147 -135.259 730 -0.0580711 -0.890204 -0.451845 208 182 181 
39.1947 -135.018 728.7 0.152883 -0.869834 -0.469058 210 184 183 
40.0694 -135.444 731 -0.280927 0.0419241 -0.958813 211 185 184 
40.7868 -135.333 730.4 -0.222306 -0.389113 -0.893964 212 186 185 
41.5258 -135.296 730.2 0.685522 -0.0744203 -0.724238 213 187 186 
42.3859 -135.648 732.1 0.410696 0.35297 -0.840679 214 188 187 
43.0319 -135.315 730.3 -0.843095 0.207616 -0.496071 214 188 187 
43.8421 -135.5 731.3 0.403715 -0.470971 -0.784347 215 189 188 
44.8678 -136.334 735.8 0 0.645624 -0.763656 216 190 189 
45.6237 -136.334 735.8 -0.706746 0.66032 -0.253944 217 191 190 
46.2031 -135.815 733 -0.818641 0.570768 -0.0636443 217 191 190 
46.8536 -135.518 731.4 0.325947 -0.800566 -0.502845 220 196 192 
47.5333 -135.315 730.3 -0.93437 0.327028 -0.141438 221 197 193 
48.0059 -134.536 726.1 -0.8051 0.557896 -0.20141 222 198 196 
48.7384 -134.499 725.9 -0.688341 0.616328 -0.382526 224 200 198 
49.9204 -135.685 732.3 -0.442704 0.885945 -0.138254 225 201 201 
50.6035 -135.5 731.3 0.488132 0.262836 -0.832253 226 201 204 
51.5022 -135.889 733.4 -0.408466 -0.297086 -0.863073 227 202 205 
52.049 -135.352 730.5 -0.567249 0.339969 -0.7501 228 204 204 
52.8284 -135.426 730.9 -0.718331 0.5516 -0.423956 228 204 204 
53.4473 -135.092 729.1 0.0472211 -0.56874 -0.821161 229 205 205 
54.278 -135.296 730.2 0.202375 -0.791748 -0.576349 229 205 205 
55.1939 -135.704 732.4 0.874084 -0.156531 -0.459865 230 206 206 
56.1526 -136.204 735.1 0.843508 -0.177526 -0.50693 230 206 206 
56.8845 -136.148 734.8 -0.943374 0.036438 -0.329723 230 206 206 
57.4119 -135.611 731.9 -0.815531 0.53525 -0.220037 230 206 206 
58.0605 -135.37 730.6 0.791835 -0.384584 -0.474439 230 206 206 
59.1732 -136.204 735.1 0.897773 0.074733 -0.434071 231 207 207 
59.8306 -135.982 733.9 -0.598609 0.80104 -0.00168197 232 208 208 
60.3451 -135.444 731 -0.402286 0.887743 -0.223782 232 208 208 
61.2883 -135.87 733.3 0.748973 0.182876 -0.636864 232 208 208 
62.2447 -136.315 735.7 -0.6172 -0.618854 -0.485884 232 208 208 
62.9063 -136.111 734.6 -0.702425 -0.526735 -0.478694 232 208 208 
63.4096 -135.574 731.7 -0.421326 -0.550012 -0.72109 232 208 208 
64.4594 -136.204 735.1 0.772314 -0.480554 -0.41545 233 209 207 
65.3033 -136.389 736.1 -0.370267 -0.123269 -0.92071 233 209 207 
65.9608 -136.185 735 0.126108 -0.126022 -0.983979 234 210 208 
66.8066 -136.371 736 0.126495 -0.63192 -0.764641 235 211 209 
67.4617 -136.167 734.9 0.378367 -0.820471 -0.428562 234 210 208 
68.393 -136.519 736.8 0.451097 -0.696837 -0.557612 234 210 208 
69.3564 -136.927 739 0.846617 -0.254731 -0.467282 234 210 208 
70.1915 -137.075 739.8 -0.600434 0.300369 -0.741119 236 210 211 
70.6925 -136.574 737.1 -0.772968 0.0788758 -0.629522 236 210 211 
71.5661 -136.797 738.3 0.602267 -0.279827 -0.747644 236 210 211 
72.4617 -137.056 739.7 -0.043495 -0.107575 -0.993245 236 210 211 
73.1424 -136.908 738.9 0.169272 -0.699179 -0.694619 237 211 212 
73.9415 -136.982 739.3 0.57095 -0.676429 -0.465252 238 212 213 
74.9535 -137.445 741.8 0.460107 -0.764907 -0.450798 239 213 214 
75.6544 -137.334 741.2 -0.127191 -0.83863 -0.529643 241 215 216 
76.5086 -137.501 742.1 0.0221556 -0.865478 -0.500458 240 214 213 
77.2189 -137.408 741.6 -0.748202 -0.495917 -0.440751 241 215 214 
77.6863 -136.889 738.8 -0.86394 0.305832 -0.400093 242 216 215 
78.7426 -137.408 741.6 0.699324 0.679894 -0.220658 242 216 215 
79.7938 -137.909 744.3 0.194177 0.953478 -0.230597 243 217 216 
80.4935 -137.797 743.7 0.0469948 0.927484 -0.370897 243 217 216 
81.334 -137.927 744.4 0.448513 0.7272 -0.519631 243 217 216 
81.8892 -137.575 742.5 -0.422592 0.893183 -0.153755 243 217 216 
82.7076 -137.668 743 0.303849 0.834781 -0.459147 244 218 217 
83.5945 -137.871 744.1 0.649084 0.242141 -0.72115 244 218 217 
84.2568 -137.705 743.2 0.568295 0.673519 -0.472664 245 219 218 
85.4779 -138.446 747.2 0.398905 0.797524 -0.452582 246 220 219 
85.9339 -137.946 744.5 -0.714387 0.625163 -0.31436 246 220 219 
86.524 -137.668 743 -0.833539 0.499838 -0.235321 246 220 219 
87.9569 -138.724 748.7 0.582632 -0.642791 -0.497352 246 220 219 
88.9038 -139.002 750.2 0.318319 -0.697895 -0.641573 246 222 220 
89.7582 -139.131 750.9 0.54647 -0.710924 -0.442672 246 222 220 
90.8551 -139.632 753.6 0.445024 -0.786253 -0.428671 247 223 221 
91.6171 -139.613 753.5 0.595279 -0.49473 -0.633155 248 224 222 
92.5628 -139.873 754.9 0.44742 0.587243 -0.674508 246 222 220 
93.2641 -139.761 754.3 -0.550031 0.79433 -0.257886 246 222 220 
97.3318 -140.039 755.8 0 0 0 247 221 220 
0.275991 -138.286 750.5 0 0 0 151 121 119 
1.81748 -138.249 750.3 -0.189545 -0.883635 -0.428091 157 127 125 
2.57998 -137.807 747.9 0.255004 -0.594633 -0.762486 160 130 128 
3.33307 -137.181 744.5 0.825067 -0.390299 -0.408571 161 131 129 
4.10835 -137.531 746.4 0.48131 -0.481123 -0.732709 161 131 129 
4.87774 -137.605 746.8 0.231555 0.57893 -0.781807 167 137 135 
