ply
format ascii 1.0
comment pointcloud saved from 3DCamera
element vertex 739
property float x
property float y
property float z
property float nx
property float ny
property float nz
property uchar red
property uchar green
property uchar blue
end_header
0.271835 -135.445 739.2 -0.665181 -0.409522 -0.624361 182 153 149 
1.03289 -135.665 740.4 0.237845 -0.238097 -0.941669 182 153 149 
1.78841 -135.28 738.3 -0.766334 0.62375 -0.153845 182 153 149 
2.53996 -134.913 736.3 0.75845 -0.363241 -0.541119 182 153 149 
3.31024 -135.481 739.4 0.352297 -0.733806 -0.580875 182 153 149 
4.06597 -135.353 738.7 -0.945554 -0.0143573 -0.325147 182 153 149 
4.80459 -134.785 735.6 -0.405508 -0.649965 -0.642736 183 154 150 
5.57009 -135.023 736.9 0.364977 -0.501782 -0.784224 184 155 151 
6.32453 -134.968 736.6 -0.411603 0.854218 -0.317638 183 154 150 
7.07932 -134.932 736.4 -0.648168 0.483641 -0.588192 183 154 150 
7.80602 -134.419 733.6 -0.873535 0.267111 -0.406926 184 155 151 
8.55615 -134.364 733.3 -0.661727 0.697977 -0.273763 185 156 152 
9.28153 -133.961 731.1 -0.161045 0.883389 -0.4401 185 156 152 
10.0683 -134.437 733.7 0.728685 0.0919487 -0.678649 185 156 152 
10.7881 -134.016 731.4 -0.574304 0.689137 -0.441887 185 156 152 
11.5505 -134.144 732.1 -0.418657 0.564236 -0.711593 185 156 152 
12.2824 -133.924 730.9 -0.906707 -0.0740953 -0.415201 187 158 154 
13.0029 -133.613 729.2 -0.0527548 -0.475196 -0.878297 187 158 154 
13.7803 -133.887 730.7 0.457667 0.159105 -0.874772 187 158 154 
14.531 -133.887 730.7 -0.623037 0.479244 -0.618183 187 158 154 
15.2586 -133.686 729.6 -0.871631 0.201327 -0.446909 187 158 154 
15.9577 -133.264 727.3 -0.807397 -0.11535 -0.578623 188 159 155 
16.7071 -133.283 727.4 -0.335467 -0.217083 -0.916699 189 160 156 
17.4424 -133.191 726.9 0.562634 -0.407906 -0.719066 190 161 157 
18.2342 -133.521 728.7 -0.450658 -0.601166 -0.65993 191 162 158 
18.9124 -133.026 726 -0.857172 -0.328606 -0.396579 192 163 159 
19.6149 -132.733 724.4 -0.520335 -0.519887 -0.677473 192 163 159 
20.3422 -132.623 723.8 -0.540199 0.0388702 -0.840639 193 164 160 
21.1033 -132.733 724.4 0.486224 0.252805 -0.836466 194 165 161 
21.8565 -132.788 724.7 0.207593 0.830668 -0.516619 195 166 162 
22.6228 -132.916 725.4 0.406848 0.81396 -0.414661 195 166 162 
23.397 -133.081 726.3 0.450227 0.332775 -0.828587 196 166 164 
24.1398 -133.063 726.2 -0.844718 0.0768223 -0.52967 196 166 164 
24.8036 -132.623 723.8 -0.799342 -0.199796 -0.566686 197 167 165 
25.5612 -132.696 724.2 -0.691193 0.0176149 -0.722456 198 168 166 
26.2834 -132.586 723.6 0.0897804 0.0905824 -0.991834 198 168 166 
27.0641 -132.77 724.6 0.760733 0.0413531 -0.647746 198 168 166 
27.7739 -132.605 723.7 -0.726603 0.635792 -0.260418 199 169 167 
28.4465 -132.275 721.9 -0.883157 0.000230471 -0.469077 200 170 168 
29.1274 -132 720.4 -0.88298 -0.29159 -0.367862 199 171 168 
29.7597 -131.524 717.8 -0.798122 -0.471634 -0.374917 199 171 168 
30.4546 -131.34 716.8 0.136677 -0.87964 -0.45558 199 171 168 
31.2301 -131.505 717.7 0.526609 -0.670765 -0.522261 199 171 168 
32.0342 -131.78 719.2 -0.23871 0.598704 -0.764573 199 171 168 
32.7548 -131.707 718.8 -0.551499 0.0993266 -0.828241 199 171 168 
33.4094 -131.377 717 0.188552 -0.660182 -0.727054 199 171 168 
34.2888 -131.927 720 0.710928 -0.564933 -0.418846 199 171 168 
35.0674 -132.073 720.8 -0.27615 -0.708649 -0.649275 199 171 168 
35.7681 -131.927 720 -0.442782 -0.652889 -0.614556 200 172 169 
36.452 -131.725 718.9 -0.831844 0.150236 -0.53429 201 173 170 
37.1854 -131.707 718.8 -0.204249 0.136174 -0.969401 201 173 170 
37.9027 -131.634 718.4 0.000188271 -0.303902 -0.952703 202 174 171 
38.6246 -131.579 718.1 0.511414 -0.176384 -0.841038 202 174 171 
39.428 -131.798 719.3 -0.786561 0.237819 -0.569881 202 174 171 
39.9715 -131.157 715.8 -0.963964 -0.0351987 -0.263695 202 174 171 
40.6557 -130.992 714.9 -0.315925 -0.802757 -0.505739 204 174 172 
41.3901 -130.992 714.9 0.238381 -0.835155 -0.495672 203 173 171 
42.1304 -131.011 715 -0.69376 -0.442937 -0.567895 204 174 172 
42.769 -130.717 713.4 -0.220298 -0.74173 -0.633487 205 175 173 
43.5385 -130.827 714 0.388137 -0.812086 -0.435736 205 175 173 
44.3836 -131.157 715.8 -0.374644 -0.739774 -0.558906 206 176 174 
44.9676 -130.717 713.4 0.25295 -0.272647 -0.928267 207 177 175 
45.9567 -131.45 717.4 0.401565 0.652647 -0.642494 208 176 177 
46.505 -130.919 714.5 -0.58004 0.808268 -0.101271 208 176 177 
47.0935 -130.516 712.3 0.31386 0.872936 -0.373463 208 177 175 
48.1005 -131.267 716.4 0.700736 0.297595 -0.648388 208 177 175 
48.7138 -130.937 714.6 -0.885943 0.298887 -0.354644 208 177 174 
49.3718 -130.736 713.5 -0.312995 -0.188035 -0.930955 209 178 175 
50.0556 -130.607 712.8 -0.720742 0.450652 -0.52673 210 179 174 
50.8021 -130.644 713 0.79112 0.33032 -0.514799 211 180 175 
51.643 -130.919 714.5 -0.350499 0.82712 -0.439344 211 181 179 
52.1937 -130.461 712 -0.756258 0.60498 -0.249144 211 181 179 
52.9029 -130.406 711.7 -0.710735 0.0189556 -0.703205 211 181 179 
53.4607 -129.985 709.4 -0.756184 -0.386058 -0.528342 211 181 179 
54.0519 -129.655 707.6 0 0 0 213 183 181 
55.3362 -130.974 714.8 0.595091 -0.000340252 -0.803658 213 183 181 
55.9999 -130.809 713.9 -0.941778 0.121032 -0.313696 213 183 181 
56.6539 -130.626 712.9 -0.404262 -0.578659 -0.708326 213 183 181 
57.2494 -130.314 711.2 -0.076035 -0.418065 -0.905229 213 182 180 
58.1186 -130.626 712.9 0.533899 -0.64069 -0.551786 213 182 180 
58.884 -130.699 713.3 -0.938788 0.159847 -0.305167 214 183 181 
59.3911 -130.204 710.6 -0.824686 0.0527928 -0.563121 215 184 182 
59.9688 -129.875 708.8 -0.871512 0.000626501 -0.490373 217 186 184 
60.637 -129.746 708.1 0.0435096 -0.778722 -0.625858 218 187 185 
61.5637 -130.168 710.4 0.576175 -0.618924 -0.533812 219 188 186 
62.1707 -129.911 709 -0.647786 0.377941 -0.661464 220 189 187 
62.9523 -130.021 709.6 0.202313 0.56646 -0.79887 218 188 186 
63.6544 -129.966 709.3 -0.606147 0.731895 -0.311314 218 190 187 
64.2923 -129.783 708.3 -0.328309 0.7972 -0.506641 220 192 189 
65.0658 -129.875 708.8 0.460358 0.684045 -0.56582 222 194 191 
65.9146 -130.113 710.1 0.467253 0.0587308 -0.882171 223 195 192 
66.5315 -129.893 708.9 -0.291652 -0.0229202 -0.95625 223 195 192 
67.1743 -129.728 708 -0.614308 0.735264 -0.28638 223 195 192 
67.9496 -129.82 708.5 0.273804 0.657054 -0.702361 225 197 194 
68.6678 -129.801 708.4 0.357544 0.663979 -0.65673 225 197 194 
69.4053 -129.82 708.5 0.496015 0.152895 -0.854747 225 197 194 
70.1826 -129.911 709 0.409373 -0.657368 -0.632677 225 197 194 
70.931 -129.948 709.2 -0.747893 -0.273575 -0.604824 224 196 193 
71.6191 -129.875 708.8 0.170264 -0.574216 -0.800803 224 196 193 
72.5106 -130.168 710.4 0.609462 -0.445378 -0.655892 224 196 193 
73.2507 -130.186 710.5 -0.0595861 -0.641687 -0.764648 224 196 193 
73.8348 -129.93 709.1 -0.551154 -0.619997 -0.55842 224 196 193 
74.5633 -129.93 709.1 -0.855411 0.0280055 -0.517191 225 197 194 
75.0581 -129.526 706.9 -0.933576 0.294787 -0.203806 226 198 195 
75.6342 -129.27 705.5 0.806801 0.0343758 -0.589822 227 199 196 
76.662 -129.783 708.3 0.69713 0.468765 -0.542465 227 199 196 
77.3023 -129.636 707.5 -0.782923 0.195569 -0.59058 227 199 196 
77.996 -129.581 707.2 -0.544736 -0.500456 -0.672909 227 199 196 
78.7225 -129.581 707.2 0.513086 -0.691766 -0.508137 227 199 196 
79.7748 -130.113 710.1 0.887601 0.0518769 -0.457683 227 197 195 
80.6517 -130.351 711.4 -0.329561 0.938409 -0.103818 227 197 195 
81.1079 -129.911 709 -0.763363 0.645923 -0.00776192 227 199 196 
81.5131 -129.398 706.2 -0.823381 0.279359 -0.493965 228 200 197 
82.3317 -129.545 707 0.621136 -0.681756 -0.386521 226 201 197 
83.4575 -130.168 710.4 0.518347 -0.744104 -0.421456 227 202 198 
84.3176 -130.369 711.5 -0.380382 -0.599781 -0.703969 227 203 199 
84.8214 -130.021 709.6 -0.541057 -0.666756 -0.512536 229 205 201 
85.4539 -129.875 708.8 -0.384964 -0.737276 -0.555182 229 206 200 
86.1821 -129.875 708.8 -0.596635 -0.596578 -0.53677 230 207 201 
86.7141 -129.581 707.2 -0.330656 -0.827271 -0.454191 231 208 202 
87.3911 -129.508 706.8 -0.00708834 -0.882311 -0.470613 233 208 203 
88.0299 -129.38 706.1 -0.713645 -0.524783 -0.464019 233 208 203 
88.5919 -129.142 704.8 0.470405 -0.21037 -0.857009 234 209 204 
89.4173 -129.288 705.6 0.577963 0.379018 -0.722706 237 209 205 
90.2571 -129.453 706.5 0.449865 -0.387788 -0.804513 238 210 206 
91.0216 -129.508 706.8 0.64959 -0.2212 -0.727395 236 211 206 
91.8775 -129.691 707.8 0.33038 0.504373 -0.797782 236 211 206 
92.6177 -129.71 707.9 -0.000141491 0.847869 -0.530205 236 211 206 
93.2921 -129.636 707.5 -0.304823 0.802133 -0.513484 236 211 206 
94.0854 -129.728 708 0.587142 -0.587182 -0.55721 236 211 206 
95.0806 -130.094 710 0.529357 -0.604896 -0.59488 237 212 207 
95.8369 -130.131 710.2 0.383139 -0.366395 -0.847915 238 213 208 
96.5257 -130.076 709.9 -0.611842 0.560731 -0.55788 240 215 210 
97.1043 -129.875 708.8 -0.364257 0.874225 -0.32101 241 216 211 
97.9429 -130.021 709.6 0.753866 -0.287604 -0.590736 242 217 212 
98.8943 -130.314 711.2 0.531099 -0.424732 -0.733169 243 218 213 
99.653 -130.351 711.4 -0.732822 0.314442 -0.603406 243 218 213 
100.003 -129.856 708.7 -0.984793 0.0642843 -0.1614 242 217 212 
100.432 -129.471 706.6 -0.892686 -0.376757 -0.247317 243 218 213 
101.903 -130.424 711.8 0.122701 0.925453 -0.358443 244 219 214 
102.591 -130.369 711.5 -0.642286 0.749439 -0.160656 244 219 214 
102.929 -129.875 708.8 -0.936362 0.338715 -0.0921916 245 220 215 
103.336 -129.471 706.6 0.301637 -0.661634 -0.68648 245 220 215 
104.945 -130.571 712.6 0.0692799 0.17125 -0.982789 245 220 215 
105.559 -130.424 711.8 -0.620677 0.280107 -0.732325 245 220 215 
106.484 -130.662 713.1 -0.19072 0.572975 -0.797073 247 222 217 
106.856 -130.223 710.7 0.039723 0.679298 -0.732787 247 222 217 
107.737 -130.406 711.7 0.354123 -0.418711 -0.836228 247 222 217 
108.56 -130.516 712.3 0.674644 -0.562802 -0.477608 247 222 217 
109.568 -130.846 714.1 0.673373 0.0579257 -0.73703 247 222 217 
110.44 -131.011 715 -0.288441 0.902374 -0.320193 247 222 217 
111.222 -131.066 715.3 -0.268505 0.821489 -0.503051 247 222 217 
111.8 -130.882 714.3 -0.740238 0.592163 -0.318418 248 223 218 
112.313 -130.626 712.9 0.312791 0.734295 -0.602472 248 223 218 
113.252 -130.864 714.2 0.0895458 0.852042 -0.515757 249 224 219 
113.778 -130.626 712.9 -0.0218842 0.95394 -0.299199 250 225 220 
114.607 -130.736 713.5 0.188853 0.946612 -0.261268 251 226 221 
116.067 -131.56 718 0.70279 -0.547102 -0.454714 251 226 221 
117.065 -131.853 719.6 0.369066 -0.676325 -0.637475 251 226 221 
117.608 -131.634 718.4 -0.592059 -0.552456 -0.586735 251 226 221 
118.329 -131.615 718.3 0.443793 -0.142338 -0.884753 251 226 221 
119.15 -131.707 718.8 0.14613 0.783873 -0.603481 251 226 221 
119.638 -131.432 717.3 -0.420512 0.872865 -0.24754 251 226 221 
120.325 -131.377 717 0.649901 0.376515 -0.660201 251 226 222 
121.804 -132.183 721.4 0.637159 0.702817 -0.31635 251 226 222 
122.579 -132.22 721.6 -0.0736786 0.982425 -0.171504 251 226 222 
123.252 -132.147 721.2 -0.0380307 0.703348 -0.709828 251 226 221 
124.045 -132.202 721.5 0.381168 -0.672005 -0.634918 250 225 220 
124.89 -132.312 722.1 0.270119 -0.742923 -0.612455 250 225 218 
125.649 -132.33 722.2 0.71103 0.197148 -0.674959 250 225 218 
126.566 -132.513 723.2 0.622939 0.719151 -0.307846 250 225 218 
128.083 -133.319 727.6 -0.381073 -0.322219 -0.866578 253 225 221 
128.494 -132.971 725.7 0.209132 -0.69719 -0.685704 251 223 219 
129.578 -133.319 727.6 0.757857 -0.425899 -0.49423 251 223 219 
130.738 -133.741 729.9 0.322795 -0.403367 -0.856212 251 223 219 
131.325 -133.576 729 0.509302 -0.339779 -0.790672 248 220 216 
132.292 -133.796 730.2 0.685834 -0.276636 -0.673129 248 220 216 
133.333 -134.089 731.8 0.829046 0.252114 -0.499121 246 218 214 
134.58 -134.584 734.5 0.865907 0.0446834 -0.498205 245 217 213 
135.777 -135.023 736.9 0.655519 -0.614179 -0.439408 244 216 212 
-20.88 -139.004 762.9 -0.947496 0.0574105 -0.314572 169 139 137 
-20.0331 -138.566 760.5 -0.920992 0.298922 -0.249839 170 140 138 
-19.1708 -137.983 757.3 -0.750193 0.294861 -0.591834 171 141 139 
-18.4098 -138.111 758 0.303606 -0.645119 -0.701174 172 142 140 
-17.6404 -138.184 758.4 -0.642192 -0.137618 -0.754089 172 142 140 
-16.8213 -137.856 756.6 -0.918483 0.193019 -0.345155 173 143 141 
-15.9889 -137.382 754 -0.930473 0.0150017 -0.366053 174 144 142 
-15.1942 -137.2 753 -0.581603 -0.373753 -0.722528 174 144 142 
-14.4187 -137.182 752.9 -0.428593 -0.631606 -0.646051 175 145 143 
-13.6308 -137.036 752.1 -0.888551 -0.232813 -0.395316 176 146 144 
-12.8154 -136.58 749.6 -0.56192 -0.528486 -0.636356 177 147 145 
-12.0325 -136.435 748.8 -0.694227 -0.386931 -0.606905 177 147 145 
-11.2467 -136.234 747.7 -0.0224039 -0.757494 -0.652458 178 148 146 
-10.48 -136.252 747.8 0.0296973 -0.799131 -0.600423 180 150 148 
-9.71566 -136.307 748.1 -0.410781 -0.597761 -0.688434 181 152 148 
-8.93637 -136.143 747.2 -0.863028 0.010843 -0.50504 179 150 146 
-8.15347 -135.888 745.8 -0.081669 -0.523112 -0.848342 178 149 143 
-7.39821 -136.088 746.9 -0.697135 -0.0606228 -0.714372 177 148 142 
-6.60606 -135.578 744.1 -0.816759 0.243831 -0.522926 176 147 141 
-5.84165 -135.578 744.1 -0.645181 -5.00181e-05 -0.764029 177 148 144 
-5.07451 -135.505 743.7 -0.561281 -0.214541 -0.799334 177 148 144 
-4.30414 -135.305 742.6 0.0859496 -0.0435422 -0.995348 178 149 145 
-3.5427 -135.36 742.9 -0.821873 0.475839 -0.313213 179 150 146 
-2.76605 -134.704 739.3 -0.848255 0.436344 -0.300113 178 149 145 
-2.00467 -134.576 738.6 -0.512122 0.692748 -0.507771 178 149 145 
-1.24827 -134.831 740 -0.460777 -0.0576042 -0.885644 179 150 146 
-0.486619 -134.43 737.8 -0.526004 -0.66199 -0.533938 180 151 147 
0.27132 -134.43 737.8 -0.378267 -0.72696 -0.5731 181 152 148 
1.02647 -134.066 735.8 0.12952 -0.828948 -0.544123 181 152 148 
1.78938 -134.594 738.7 0.00978108 -0.815067 -0.579284 181 152 148 
2.54065 -134.193 736.5 -0.748028 0.000259504 -0.663667 181 152 148 
3.30218 -134.394 737.6 0.640848 -0.486235 -0.594045 180 151 147 
4.05386 -134.193 736.5 -0.921714 0.0527508 -0.384266 181 152 148 
4.79348 -133.72 733.9 -0.924781 -0.00852929 -0.380403 182 153 149 
5.54515 -133.665 733.6 0.451499 -0.724117 -0.521348 183 154 150 
6.31852 -134.084 735.9 0.0155574 -0.862467 -0.505874 181 152 148 
7.06682 -133.938 735.1 -0.241597 -0.816843 -0.52383 182 153 149 
7.80602 -133.665 733.6 -0.750812 -0.262502 -0.606113 183 154 150 
8.56315 -133.72 733.9 -0.20415 -0.204127 -0.957421 184 155 151 
9.30819 -133.592 733.2 -0.872285 0.226163 -0.433553 184 155 151 
10.0504 -133.446 732.4 0.352853 -0.734076 -0.580197 184 155 151 
10.8161 -133.61 733.3 0.403481 -0.492906 -0.770874 184 155 151 
11.5789 -133.72 733.9 -0.638101 0.501489 -0.584239 184 155 151 
12.2942 -133.301 731.6 -0.955977 0.156102 -0.248474 185 156 152 
12.994 -132.772 728.7 -0.310873 -0.253403 -0.916049 185 156 152 
13.7784 -133.118 730.6 0.449913 -0.350108 -0.821585 185 156 152 
14.5171 -133.009 730 -0.480463 -0.558386 -0.676284 185 156 152 
15.2482 -132.845 729.1 -0.735271 -0.33752 -0.587755 186 157 153 
15.9642 -132.572 727.6 -0.742872 0.432098 -0.511305 186 157 153 
16.6979 -132.463 727 -0.372791 0.745602 -0.552362 187 158 154 
17.4424 -132.444 726.9 0.168318 0.483677 -0.85891 189 160 156 
18.2066 -132.572 727.6 -0.704031 0.0333951 -0.709384 189 160 156 
18.8811 -132.062 724.8 -0.886726 0.13132 -0.443252 190 161 157 
19.623 -132.043 724.7 0.0305422 0.850439 -0.525186 191 162 158 
20.3816 -132.135 725.2 -0.0813249 0.956968 -0.278565 192 163 159 
21.1236 -132.116 725.1 -0.0768125 0.844417 -0.530151 192 163 159 
21.8776 -132.171 725.4 0.52507 0.0188288 -0.850851 193 164 160 
22.654 -132.353 726.4 0.528029 0.0753205 -0.84588 194 165 161 
23.3809 -132.244 725.8 -0.702768 -0.0163562 -0.711231 194 164 164 
24.0999 -132.098 725 -0.541507 -0.541325 -0.643224 195 165 165 
24.7933 -131.825 723.5 -0.916264 0.0194965 -0.4001 196 166 166 
25.4942 -131.606 722.3 -0.641408 -0.395521 -0.657388 197 167 167 
26.2035 -131.442 721.4 -0.203325 -0.506923 -0.837668 196 166 166 
26.9334 -131.388 721.1 0.489452 -0.674473 -0.552741 197 167 167 
27.8085 -132.025 724.6 -0.0078954 -0.856828 -0.515542 198 168 168 
28.4662 -131.624 722.4 -0.843527 -0.379414 -0.380142 199 169 169 
29.1274 -131.26 720.4 -0.882312 -0.0451099 -0.468498 198 170 167 
29.7887 -130.914 718.5 -0.76284 0.584357 -0.276771 198 170 167 
30.4249 -130.477 716.1 -0.626377 -0.231255 -0.744428 198 170 167 
31.2258 -130.75 717.6 0.85901 0.295358 -0.418168 198 170 167 
32.0921 -131.278 720.5 0.409652 0.224495 -0.884187 198 170 167 
32.764 -131.005 719 -0.472043 0.266181 -0.84043 198 170 167 
33.4793 -130.914 718.5 -0.412674 0.858076 -0.305625 198 170 167 
34.2031 -130.859 718.2 0.726703 -0.085438 -0.681618 198 170 167 
35.0334 -131.205 720.1 -0.238315 -0.758487 -0.60655 197 169 166 
35.6489 -130.75 717.6 -0.281022 -0.79794 -0.533216 198 170 167 
36.4469 -130.968 718.8 -0.117234 -0.750776 -0.650071 199 171 168 
37.1233 -130.75 717.6 -0.411274 -0.610291 -0.677051 200 172 169 
37.8658 -130.768 717.7 -0.0443809 -0.775922 -0.629265 201 173 170 
38.6084 -130.786 717.8 0.520223 -0.635826 -0.570169 201 173 170 
39.4445 -131.114 719.6 0.0167251 -0.537808 -0.842901 201 173 170 
40.0665 -130.732 717.5 -0.925606 0.336572 -0.173126 201 173 170 
40.6443 -130.221 714.7 -0.815485 0.550986 -0.177194 202 172 170 
41.2685 -129.875 712.8 -0.219443 -0.438637 -0.87146 203 173 171 
42.1775 -130.422 715.8 -0.369133 0.844518 -0.387983 205 175 173 
42.799 -130.076 713.9 -0.51937 0.831041 -0.199063 205 175 173 
43.5507 -130.13 714.2 -0.205759 0.771642 -0.601857 205 175 173 
44.2595 -130.057 713.8 0.480963 -0.315039 -0.818184 206 176 174 
45.018 -130.13 714.2 -0.247259 0.557741 -0.792331 207 177 175 
45.7645 -130.167 714.4 0.78437 -0.246637 -0.569152 207 175 176 
46.557 -130.331 715.3 0.462745 0.565353 -0.68282 207 175 176 
47.3447 -130.477 716.1 -0.33752 0.933095 -0.124153 207 176 174 
48.0535 -130.404 715.7 0.000366983 0.569036 -0.822312 207 176 174 
48.6797 -130.112 714.1 -0.898929 0.261293 -0.351644 208 177 174 
49.3095 -129.839 712.6 -0.67148 0.0906193 -0.735461 208 177 174 
50.1258 -130.057 713.8 0.416118 0.356751 -0.836405 209 178 173 
50.7665 -129.821 712.5 0.507354 0.800052 -0.32017 210 179 174 
51.708 -130.349 715.4 0.129316 0.90172 -0.412528 211 181 179 
52.2963 -129.985 713.4 -0.809761 0.545486 -0.216178 211 181 179 
53.0144 -129.948 713.2 -0.781643 0.411414 -0.468799 211 181 179 
53.6038 -129.602 711.3 0.0305325 0.855493 -0.516913 211 181 179 
54.4873 -129.966 713.3 0.755849 0.387948 -0.527436 213 183 181 
55.2511 -130.039 713.7 -0.000198133 -0.78371 -0.621127 213 183 181 
56.0392 -130.167 714.4 -0.656271 -0.518181 -0.548449 213 183 181 
56.4313 -129.383 710.1 0.202859 -0.755948 -0.622407 213 183 181 
57.3138 -129.729 712 0.445566 -0.166754 -0.879582 212 181 179 
58.0615 -129.766 712.2 0.352114 -0.175872 -0.919285 213 182 180 
58.7849 -129.748 712.1 -0.348349 -0.224681 -0.910039 214 183 181 
59.3994 -129.493 710.7 -0.867192 0.433649 -0.244802 215 184 182 
60.0365 -129.292 709.6 -0.81242 0.52227 -0.259244 217 186 184 
60.6541 -129.055 708.3 -0.518933 0.794963 -0.314232 217 186 184 
61.2604 -128.8 706.9 0.665692 -0.106381 -0.738605 218 187 185 
62.2935 -129.438 710.4 0.554776 -0.53167 -0.639961 219 188 186 
62.9701 -129.329 709.8 0.629096 0.338028 -0.699982 218 188 186 
63.771 -129.474 710.6 -0.479524 0.822104 -0.306923 218 190 187 
64.3377 -129.146 708.8 -0.558646 0.760699 -0.330532 220 192 189 
65.0658 -129.146 708.8 -0.563888 0.281323 -0.776458 221 193 190 
65.7847 -129.128 708.7 -0.0992115 -0.813952 -0.572398 222 194 191 
66.4564 -129.019 708.1 0.612183 -0.577968 -0.539616 222 194 191 
67.4115 -129.456 710.5 -0.0421459 0.891057 -0.45193 222 194 191 
67.9688 -129.128 708.7 -0.649801 0.674398 -0.350637 224 196 193 
68.6872 -129.11 708.6 0.675172 -0.117397 -0.728259 224 196 193 
69.5816 -129.42 710.3 0.280056 0.520095 -0.806889 224 196 193 
70.2222 -129.256 709.4 0.000160105 0.406522 -0.913641 224 196 193 
71.021 -129.383 710.1 -0.777789 -0.137422 -0.613319 223 195 192 
71.5484 -129.019 708.1 -0.660291 -0.519125 -0.542702 223 195 192 
72.2146 -128.91 707.5 0.546925 -0.63971 -0.540041 223 195 192 
73.096 -129.183 709 0.282209 -0.517016 -0.808117 223 195 192 
73.7619 -129.074 708.4 -0.782849 -0.0784454 -0.617247 223 195 192 
74.4476 -129.001 708 -0.199934 -0.615248 -0.762559 224 196 193 
75.1962 -129.037 708.2 -0.935524 -0.137636 -0.325347 225 197 194 
75.6128 -128.509 705.3 0.490752 -0.55077 -0.675141 226 198 195 
76.8569 -129.383 710.1 0.81858 -0.358528 -0.448759 226 198 195 
77.4662 -129.183 709 -0.851608 0.408769 -0.328133 226 198 195 
77.9739 -128.818 707 -0.77837 0.581062 -0.23771 224 195 191 
78.4553 -128.418 704.8 -0.473765 0.702371 -0.531246 224 195 191 
79.2917 -128.6 705.8 0.602321 -0.443958 -0.663408 226 196 194 
80.663 -129.638 711.5 -0.0698414 0.139683 -0.98773 226 196 194 
81.2338 -129.383 710.1 -0.971317 -0.120232 -0.205155 226 196 194 
81.4785 -128.618 705.9 -0.926975 0.336545 -0.165695 226 196 194 
82.0523 -128.381 704.6 0.102956 0.776321 -0.621873 227 197 195 
82.8818 -128.545 705.5 0.70317 -0.492271 -0.513051 227 197 195 
83.8791 -128.964 707.8 0.143998 -0.875355 -0.461538 227 199 196 
84.4987 -128.8 706.9 -0.338047 -0.820859 -0.460342 228 200 197 
85.1405 -128.673 706.2 -0.299159 -0.710469 -0.636975 228 203 198 
85.8538 -128.654 706.1 -0.596104 -0.654158 -0.465551 229 204 199 
86.383 -128.363 704.5 -0.60173 -0.695465 -0.392745 231 206 201 
86.9707 -128.163 703.4 0.353618 -0.757999 -0.548079 232 207 202 
87.9551 -128.545 705.5 0.371292 -0.241189 -0.896644 231 206 201 
88.5416 -128.345 704.4 0.784723 0.307613 -0.53813 231 206 201 
89.8228 -129.146 708.8 0.721681 0.592675 -0.35765 232 207 202 
90.3977 -128.928 707.6 -0.255038 0.947631 -0.192227 233 208 203 
91.0988 -128.891 707.4 0.569723 0.525111 -0.632198 235 207 203 
92.0981 -129.274 709.5 0.378283 -0.270939 -0.885152 236 208 204 
92.7747 -129.201 709.1 0.444086 -0.545414 -0.710853 237 209 205 
93.6482 -129.402 710.2 -0.676937 0.282055 -0.679854 238 210 206 
94.0721 -128.982 707.9 -0.807568 0.0644668 -0.586241 238 210 206 
94.7592 -128.928 707.6 0.469505 -0.687404 -0.554112 238 210 206 
95.729 -129.256 709.4 0.64892 -0.559471 -0.51565 238 210 206 
96.5801 -129.42 710.3 0.704365 0.29004 -0.647878 240 212 208 
97.4194 -129.565 711.1 -0.419518 0.871249 -0.254815 241 213 209 
98.0119 -129.383 710.1 -0.78401 0.216768 -0.58167 241 213 209 
98.6857 -129.31 709.7 0.450073 -0.69991 -0.554581 242 214 210 
99.5969 -129.547 711 0.432828 -0.577201 -0.692459 242 214 210 
100.271 -129.474 710.6 -0.961946 0.248738 -0.113093 243 215 211 
100.546 -128.891 707.4 -0.396023 -0.328443 -0.857491 243 215 211 
101.903 -129.693 711.8 0.305191 -0.838577 -0.451272 244 216 212 
102.663 -129.729 712 0.109098 -0.726796 -0.678133 244 216 212 
103.162 -129.438 710.4 -0.773696 0.632896 -0.0289402 244 216 212 
103.394 -128.818 707 -0.0868257 0.978368 -0.187769 244 216 212 
104.71 -129.547 711 0.906192 -0.00817396 -0.422788 244 216 212 
105.603 -129.748 712.1 -0.763339 0.331886 -0.554225 244 216 212 
105.962 -129.292 709.6 0.379707 -0.132972 -0.9155 246 218 214 
106.976 -129.638 711.5 -0.0909606 0.0449265 -0.994841 247 219 215 
107.813 -129.766 712.2 0.482746 0.0924103 -0.870871 248 220 216 
108.331 -129.511 710.8 -0.154107 0.87592 -0.457181 245 220 215 
109.997 -130.622 716.9 0.31967 0.93938 -0.124005 245 220 215 
110.749 -130.641 717 -0.391493 0.883034 -0.258814 245 220 215 
111.222 -130.331 715.3 -0.838545 -0.0155164 -0.544612 245 220 215 
111.722 -130.057 713.8 -0.871597 -0.199287 -0.447887 247 222 217 
112.439 -130.039 713.7 0.38389 -0.632479 -0.672755 248 223 218 
113.474 -130.385 715.6 0.608868 0.611199 -0.505683 249 224 219 
114.145 -130.313 715.2 0.176737 0.972571 -0.151224 249 224 219 
115.233 -130.713 717.4 -0.0979147 0.985783 -0.136549 249 224 219 
115.711 -130.422 715.8 0.39527 -0.344122 -0.85167 250 225 220 
116.593 -130.586 716.7 0.373188 -0.785751 -0.493282 251 226 221 
117.411 -130.677 717.2 0.0660577 -0.688657 -0.722072 250 225 220 
118.049 -130.568 716.6 0.739805 -0.0606077 -0.670086 250 225 220 
119.25 -131.078 719.4 0.79846 -0.0212907 -0.601671 250 225 220 
120.172 -131.278 720.5 0.34594 0.607145 -0.715333 250 225 220 
120.996 -131.369 721 0.72655 0.47311 -0.498289 249 226 220 
122.125 -131.788 723.3 0.778851 0.0513902 -0.6251 248 225 219 
122.953 -131.879 723.8 -0.193732 0.885598 -0.422118 249 224 219 
123.543 -131.715 722.9 -0.812234 0.551169 -0.19102 249 224 219 
123.942 -131.351 720.9 -0.761922 -0.259081 -0.593592 252 224 220 
124.717 -131.388 721.1 0.286123 -0.774257 -0.564499 252 224 220 
125.632 -131.57 722.1 0.807576 -0.365038 -0.463214 252 223 219 
127.213 -132.444 726.9 0.879731 0.21482 -0.424178 251 222 218 
128.066 -132.554 727.5 0.469477 0.470535 -0.74712 250 222 218 
128.477 -132.207 725.6 -0.0353757 0.760655 -0.648191 250 222 218 
129.578 -132.572 727.6 0.857434 0.115304 -0.501509 250 222 218 
130.72 -132.973 729.8 0.655637 -0.192692 -0.730075 250 222 218 
131.289 -132.79 728.8 0.637989 0.148338 -0.755623 248 220 216 
132.473 -133.228 731.2 0.584736 0.252255 -0.771007 248 220 216 
133.188 -133.191 731 0.754308 -0.291752 -0.588133 246 218 214 
134.928 -134.175 736.4 -0.246061 -0.441288 -0.862971 245 217 213 
135.537 -134.029 735.6 0.0823434 -0.814849 -0.573795 244 216 212 
-24.8441 -138.474 764.3 0 0 0 160 132 128 
-23.9394 -137.785 760.5 0 0 0 162 132 130 
-20.8718 -138.166 762.6 -0.961336 -0.0844078 -0.262123 167 137 135 
-19.9988 -137.55 759.2 -0.609126 -0.549286 -0.572058 167 137 135 
-19.2088 -137.477 758.8 -0.72744 0.456327 -0.512441 168 138 136 
-18.3977 -137.242 757.5 -0.611383 0.555726 -0.563364 168 138 136 
-17.6195 -137.242 757.5 -0.275811 -0.671581 -0.687682 170 140 138 
-16.8347 -137.187 757.2 -0.693502 -0.515855 -0.50294 171 141 139 
-16.0123 -136.807 755.1 -0.93554 -0.0974839 -0.339502 172 142 140 
-15.178 -136.281 752.2 -0.779675 -0.168343 -0.603131 173 143 141 
-14.3996 -136.227 751.9 -0.856679 -0.19354 -0.478166 173 143 141 
-13.58 -135.756 749.3 -0.755066 -0.356904 -0.549995 174 144 142 
-12.7795 -135.43 747.5 -0.83412 0.152549 -0.530069 175 145 143 
-12.0212 -135.539 748.1 -0.0657813 0.131564 -0.989123 176 146 144 
-11.2422 -135.412 747.4 -0.495211 0.619152 -0.60944 178 148 146 
-10.4786 -135.466 747.7 0.298293 0.477433 -0.826486 179 149 147 
-9.71046 -135.466 747.7 -0.435194 0.557061 -0.707311 181 152 148 
-8.93279 -135.321 746.9 -0.707144 0.415942 -0.571786 179 150 146 
-8.15347 -135.122 745.8 -0.528311 0.716942 -0.454841 178 149 143 
-7.38335 -135.049 745.4 -0.509999 0.169476 -0.843314 177 148 142 
-6.61849 -135.067 745.5 -0.653787 -0.0794225 -0.752499 176 147 141 
-5.84636 -134.923 744.7 -0.786233 0.317068 -0.530383 176 147 143 
-5.0711 -134.651 743.2 -0.752739 -0.158474 -0.63896 177 148 144 
-4.30414 -134.542 742.6 0.419437 -0.554878 -0.718459 178 149 145 
-3.55271 -134.977 745 0.608945 0.438328 -0.661101 179 150 146 
-2.77765 -134.506 742.4 -0.841912 0.282527 -0.459743 177 148 144 
-2.01525 -134.524 742.5 -0.782084 0.353183 -0.513427 178 149 145 
-1.24827 -134.071 740 -0.888599 0.0202708 -0.458238 179 150 146 
-0.486751 -133.709 738 -0.92166 -0.0801614 -0.379627 180 151 147 
0.270658 -133.346 736 -0.433085 -0.614791 -0.659143 181 152 148 
1.02898 -133.636 737.6 -0.420795 0.888065 -0.185127 181 152 148 
1.78308 -133.364 736.1 -0.117435 0.850722 -0.51233 181 152 148 
2.54203 -133.509 736.9 -0.745347 -0.113064 -0.65702 181 152 148 
3.29502 -133.346 736 0.522348 -0.666401 -0.532036 180 151 147 
4.06597 -133.835 738.7 -0.306655 -0.599425 -0.739359 180 151 147 
4.80916 -133.401 736.3 -0.951806 0.0770151 -0.296874 181 152 148 
5.55044 -133.038 734.3 -0.492993 -0.165613 -0.854126 182 153 149 
6.30478 -133.038 734.3 -0.621406 -0.477376 -0.621263 181 152 148 
7.03509 -132.585 731.8 -0.166353 -0.860615 -0.48132 181 152 148 
7.80709 -132.93 733.7 0.129795 -0.830091 -0.542311 182 153 149 
8.55148 -132.785 732.9 -0.195438 -0.708613 -0.677991 183 154 150 
9.30565 -132.803 733 -0.729011 -0.491867 -0.476035 184 155 151 
10.0189 -132.277 730.1 -0.517925 -0.730643 -0.444875 184 155 151 
10.7807 -132.422 730.9 0.340877 -0.867766 -0.361643 184 155 151 
11.5631 -132.785 732.9 0.190907 -0.885229 -0.424175 184 155 151 
12.2908 -132.513 731.4 -0.89883 -0.23051 -0.372787 184 155 151 
12.9869 -131.951 728.3 -0.739826 0.185294 -0.646779 184 155 151 
13.7747 -132.332 730.4 0.409303 -0.358106 -0.839185 184 155 151 
14.4972 -132.078 729 -0.705177 -0.305995 -0.639603 184 155 151 
15.2314 -131.951 728.3 -0.319457 -0.199677 -0.926324 185 156 152 
15.9752 -131.915 728.1 0.0569604 0.682262 -0.728885 186 157 153 
16.7462 -132.096 729.1 -0.440096 0.752118 -0.490545 188 159 155 
17.4688 -131.897 728 -0.679103 0.0848936 -0.729117 188 159 155 
18.2191 -131.915 728.1 -0.339879 -0.486079 -0.805115 189 160 156 
18.9176 -131.571 726.2 -0.655667 0.573731 -0.49085 190 161 157 
19.6745 -131.643 726.6 -0.0602152 0.647744 -0.759475 191 162 158 
20.449 -131.824 727.6 7.79305e-06 -0.47818 -0.878262 191 162 158 
21.1673 -131.643 726.6 -0.699506 -0.140549 -0.700669 192 163 159 
21.8685 -131.371 725.1 -0.589303 -0.302729 -0.749051 193 164 160 
22.6103 -131.353 725 0.392271 -0.728458 -0.56167 194 165 161 
23.397 -131.589 726.3 -0.537837 -0.631092 -0.558976 194 164 164 
24.0633 -131.154 723.9 -0.444403 -0.72253 -0.529582 194 164 164 
24.8207 -131.227 724.3 -0.43245 -0.558046 -0.708218 195 165 165 
25.5083 -130.937 722.7 -0.820636 0.315586 -0.476406 196 166 166 
26.218 -130.774 721.8 0.290979 0.416179 -0.861467 196 166 166 
27.0268 -131.1 723.6 -0.46906 0.636407 -0.612347 196 166 166 
27.6895 -130.719 721.5 -0.594741 -0.423146 -0.683543 197 167 167 
28.3598 -130.393 719.7 -0.779104 -0.357058 -0.515274 198 168 166 
29.0708 -130.266 719 -0.385535 -0.331183 -0.861209 196 166 164 
29.8675 -130.52 720.4 0.831579 0.0481606 -0.553315 196 166 164 
30.6925 -130.882 722.4 0.553896 0.139951 -0.820739 196 166 164 
31.3824 -130.665 721.2 -0.436594 0.819172 -0.371945 196 166 164 
32.0832 -130.502 720.3 -0.36094 0.897373 -0.253857 196 166 164 
32.7184 -130.085 718 -0.63672 0.545593 -0.544901 197 167 165 
33.5538 -130.466 720.1 0.660611 0.11568 -0.741762 197 167 165 
34.2745 -130.393 719.7 -0.513541 0.770328 -0.377982 198 168 166 
34.9604 -130.194 718.6 -0.703459 0.327778 -0.63064 199 169 167 
35.6092 -129.868 716.8 -0.76383 0.402867 -0.504244 199 169 167 
36.3607 -129.922 717.1 0.0654486 -0.130795 -0.989247 199 169 167 
37.1026 -129.94 717.2 -0.457841 -0.29307 -0.83934 199 169 167 
37.7972 -129.795 716.4 -0.600055 -0.176467 -0.780252 199 169 167 
38.5116 -129.723 716 0.511072 -0.569144 -0.644113 199 169 167 
39.3513 -130.067 717.9 0.310733 -0.741661 -0.594461 199 169 167 
40.0609 -129.976 717.4 -0.578872 -0.578831 -0.574337 199 169 167 
40.741 -129.795 716.4 -0.790014 0.414528 -0.451713 199 171 168 
41.4306 -129.65 715.6 0.285762 0.866292 -0.409729 199 171 168 
42.3484 -130.212 718.7 -0.544331 0.59532 -0.591014 201 173 170 
42.9848 -129.904 717 -0.705966 0.681626 -0.192348 201 173 170 
43.6482 -129.687 715.8 -0.384852 0.888227 -0.250883 202 174 171 
44.2843 -129.397 714.2 -0.212543 0.941209 -0.262585 202 174 171 
45.0874 -129.596 715.3 0.318639 0.796418 -0.513993 203 175 172 
45.8222 -129.596 715.3 0.446406 0.67734 -0.58475 204 176 173 
46.6286 -129.795 716.4 0.837667 0.124638 -0.53177 205 175 173 
47.51 -130.194 718.6 -0.347441 0.511034 -0.786212 206 177 173 
48.0267 -129.596 715.3 -0.706356 0.613567 -0.352983 207 178 174 
48.7547 -129.578 715.2 -0.616236 0.709293 -0.342282 208 179 175 
49.4479 -129.469 714.6 -0.663295 0.709971 -0.236603 208 179 175 
50.0416 -129.107 712.6 0.5549 0.398798 -0.730099 208 179 175 
50.9874 -129.65 715.6 0.888966 0.127606 -0.439836 208 179 175 
51.8526 -129.976 717.4 0.215921 0.763655 -0.608448 207 179 176 
52.421 -129.56 715.1 -0.847967 0.512688 -0.13455 207 179 176 
52.9623 -129.089 712.5 -0.805327 0.539976 -0.244693 207 179 176 
53.6038 -128.871 711.3 -0.529186 0.0204428 -0.84826 208 178 176 
54.5103 -129.288 713.6 0.682101 -0.525954 -0.508046 209 179 177 
55.2201 -129.234 713.3 -0.533638 -0.293168 -0.793273 210 179 177 
55.8117 -128.907 711.5 -0.285069 -0.832043 -0.475857 210 179 177 
56.3519 -128.473 709.1 0.770409 -0.357604 -0.527815 210 179 177 
57.3299 -129.034 712.2 0.80958 -0.299185 -0.505043 211 180 178 
58.0534 -129.016 712.1 0.178968 0.246158 -0.952563 212 181 179 
58.7766 -128.998 712 -0.222046 -0.089126 -0.970954 214 183 181 
59.5833 -129.161 712.9 -0.501466 0.0625766 -0.862912 214 184 182 
60.1549 -128.817 711 -0.739363 0.64998 -0.175691 216 186 184 
60.7312 -128.491 709.2 -0.54631 0.703822 -0.45407 216 186 184 
61.5984 -128.781 710.8 -0.60512 0.589033 -0.535603 217 187 185 
62.1444 -128.4 708.7 -0.0863596 -0.656759 -0.749139 218 188 186 
62.9168 -128.491 709.2 0.598342 -0.66196 -0.451437 219 189 187 
63.9057 -129.016 712.1 0.274107 -0.548311 -0.790076 219 189 187 
64.4647 -128.672 710.2 -0.70486 0.326213 -0.629887 220 190 188 
65.1851 -128.654 710.1 -0.755051 0.615286 -0.22654 221 191 189 
65.6269 -128.092 707 -0.957595 0.103595 -0.26885 221 191 189 
66.2687 -127.929 706.1 0.563046 -0.678435 -0.471917 221 191 189 
67.44 -128.781 710.8 0.693419 -0.585428 -0.420053 221 191 189 
68.1127 -128.672 710.2 -0.916161 -0.0947314 -0.389454 221 193 190 
68.6484 -128.31 708.2 -0.108101 -0.619249 -0.777717 221 193 190 
69.5229 -128.581 709.7 0.390282 -0.72604 -0.566167 221 193 190 
70.2222 -128.527 709.4 -0.168722 -0.713743 -0.679783 221 193 190 
70.941 -128.509 709.3 -0.511768 -0.0815214 -0.855247 222 194 191 
71.3968 -128.02 706.6 -0.768312 0.603692 -0.212725 221 193 190 
72.1227 -128.02 706.6 0.605393 -0.000441298 -0.795927 221 193 190 
73.1682 -128.581 709.7 0.728505 -0.440495 -0.524638 221 193 190 
73.8869 -128.563 709.6 -0.617242 0.392636 -0.681799 224 195 191 
74.4476 -128.273 708 -0.828775 0.448941 -0.334042 224 195 191 
75.0794 -128.11 707.1 -0.919527 -0.0109191 -0.392875 224 195 191 
75.527 -127.639 704.5 -0.661839 0.246046 -0.708117 224 195 191 
76.4348 -127.947 706.2 0.793725 -0.42482 -0.435349 223 194 190 
77.3678 -128.291 708.1 0.247763 -0.680115 -0.689969 223 194 190 
78.0401 -128.201 707.6 4.21222e-05 0.571642 -0.820503 223 194 190 
78.8561 -128.346 708.4 -0.104542 0.981331 -0.161435 223 194 190 
79.5276 -128.255 707.9 -0.30864 0.946637 -0.0928409 225 195 193 
80.0848 -127.983 706.4 -0.581977 0.803235 -0.12695 225 195 193 
80.7647 -127.911 706 -0.313114 -0.685511 -0.657293 225 195 193 
81.5131 -127.947 706.2 0.281047 -0.670794 -0.68633 225 195 193 
82.4365 -128.255 707.9 0.28398 0.759996 -0.584604 226 196 194 
83.2343 -128.364 708.5 -0.127837 0.575126 -0.808015 226 196 194 
83.8673 -128.219 707.7 -0.455356 -0.456161 -0.764571 227 197 195 
84.3911 -127.911 706 -0.601424 0.23972 -0.762118 228 198 196 
85.2249 -128.074 706.9 0.0792153 0.973222 -0.215787 229 201 197 
85.9511 -128.074 706.9 -0.507642 0.859021 -0.0662026 228 203 198 
86.3339 -127.567 704.1 -0.658418 0.749655 -0.0671026 230 205 200 
86.9707 -127.44 703.4 0.378257 0.845387 -0.37715 232 207 202 
88.0174 -127.911 706 0.804323 0.428856 -0.411275 230 205 200 
88.8307 -128.038 706.7 0.442495 0.792597 -0.419509 230 205 200 
89.7595 -128.328 708.3 0.89204 0.0396634 -0.450213 232 207 202 
90.6404 -128.545 709.5 -0.158244 0.673093 -0.72243 232 207 202 
91.2534 -128.382 708.6 -0.423473 0.804676 -0.416134 234 206 202 
91.9424 -128.328 708.3 -0.655134 0.356307 -0.666217 234 206 202 
92.3691 -127.911 706 -0.321372 -0.562624 -0.761692 236 208 204 
93.3581 -128.273 708 0.295913 -0.774547 -0.559028 237 209 205 
93.9791 -128.128 707.2 -0.685705 -0.561082 -0.463676 237 209 205 
94.6654 -128.074 706.9 0.0299342 -0.809653 -0.586146 237 209 205 
95.4726 -128.183 707.5 0.699638 -0.539321 -0.468656 237 209 205 
96.6209 -128.744 710.6 0.869828 -0.182375 -0.458408 239 211 207 
97.6249 -129.107 712.6 -0.402295 0.268085 -0.87538 240 212 208 
98.0257 -128.672 710.2 -0.974347 0.14465 -0.172406 241 213 209 
98.3798 -128.183 707.5 -0.241971 -0.58094 -0.777148 241 213 209 
99.3868 -128.545 709.5 0.549934 -0.672228 -0.495663 242 214 210 
100.341 -128.835 711.1 -0.674385 -0.534398 -0.509533 242 214 210 
100.447 -128.038 706.7 -0.789181 0.456818 -0.4105 243 215 211 
101.516 -128.473 709.1 0.578327 -0.46236 -0.672132 243 215 211 
102.057 -128.237 707.8 0.401912 -0.785272 -0.470973 244 216 212 
103.365 -128.962 711.8 0.566423 -0.607579 -0.556789 243 215 211 
104.023 -128.871 711.3 -0.371786 0.898158 -0.234707 243 215 211 
104.754 -128.871 711.3 0.681717 0.298258 -0.66806 243 215 211 
105.677 -129.107 712.6 0.39511 0.35167 -0.848655 243 215 211 
106.26 -128.926 711.6 -0.448698 0.865375 -0.22315 245 217 213 
107.277 -129.27 713.5 0.167674 0.671966 -0.721351 246 218 214 
107.525 -128.69 710.3 0.210834 0.612378 -0.761933 247 219 215 
108.712 -129.234 713.3 0.802995 0.225171 -0.551812 244 219 214 
109.675 -129.505 714.8 -0.325367 0.489043 -0.809304 244 219 214 
109.854 -128.853 711.2 0.344989 0.908969 -0.234005 244 219 214 
111.004 -129.342 713.9 -0.0251284 0.244767 -0.969256 244 219 214 
111.831 -129.451 714.5 -0.893392 -0.0133328 -0.449079 246 221 216 
112.124 -128.944 711.7 -0.623133 -0.0974437 -0.776022 246 221 216 
113.046 -129.161 712.9 0.697586 -0.483987 -0.528328 247 222 217 
114.688 -130.194 718.6 0.672519 0.511172 -0.535183 247 222 217 
115.474 -130.248 718.9 -0.484003 0.836486 -0.256968 245 220 215 
115.711 -129.687 715.8 -0.8002 0.585671 -0.129109 246 221 216 
116.333 -129.56 715.1 0.59631 0.513433 -0.617091 247 222 217 
117.28 -129.795 716.4 0.697183 0.245093 -0.673695 248 223 218 
118.329 -130.139 718.3 0.704498 -0.249894 -0.664256 248 223 218 
119.366 -130.466 720.1 0.666352 -0.4076 -0.624369 248 223 218 
119.989 -130.339 719.4 -0.0555112 -0.680889 -0.73028 248 223 218 
120.778 -130.393 719.7 0.513951 -0.696178 -0.50119 247 224 218 
121.99 -130.9 722.5 0.724768 -0.528529 -0.442005 247 224 218 
122.953 -131.136 723.8 0.184437 -0.469419 -0.863498 248 223 218 
123.56 -130.991 723 -0.925726 0.0609377 -0.373254 248 223 218 
123.924 -130.592 720.8 -0.902229 0.397972 -0.166139 251 223 219 
124.371 -130.284 719.1 -0.391693 0.606673 -0.691755 250 222 218 
125.179 -130.357 719.5 0.608681 0.0476168 -0.791985 250 221 217 
126.951 -131.426 725.4 0.655745 -0.59971 -0.458635 250 221 217 
127.855 -131.589 726.3 0.718986 -0.428774 -0.547003 249 221 217 
128.778 -131.77 727.3 0.45582 0.81848 -0.349741 249 221 217 
129.792 -132.042 728.8 0.354324 0.885585 -0.300323 249 221 217 
130.559 -132.06 728.9 0.321932 0.140879 -0.936222 249 221 217 
131.379 -132.132 729.3 0.774252 -0.166521 -0.610578 248 220 216 
132.563 -132.567 731.7 0.522761 0.523543 -0.672773 247 219 215 
132.969 -132.223 729.8 0.159293 0.0305102 -0.98676 247 219 215 
134.543 -133.038 734.3 -0.00824507 -0.187584 -0.982214 245 217 213 
134.929 -132.676 732.3 -0.750819 -0.308888 -0.583832 244 216 212 
135.644 -132.64 732.1 -0.213777 -0.47888 -0.851454 243 215 211 
-25.6192 -137.634 764 0 0 0 153 122 120 
-22.4857 -137.67 764.2 -0.728966 -0.596591 -0.33569 163 132 130 
-21.6524 -137.364 762.5 -0.421192 -0.814206 -0.399583 164 133 131 
-20.8088 -136.968 760.3 -0.861742 -0.326997 -0.38791 164 133 131 
-19.9514 -136.445 757.4 -0.427046 -0.749877 -0.505288 165 134 132 
-19.2088 -136.698 758.8 0.528008 -0.746653 -0.404619 167 136 134 
-18.4463 -136.824 759.5 -0.853752 0.151156 -0.498256 169 138 136 
-17.6079 -136.373 757 -0.881833 -0.231667 -0.410733 168 138 138 
-16.7835 -135.995 754.9 -0.602601 -0.662847 -0.444417 168 138 138 
-15.9741 -135.707 753.3 -0.668851 -0.635727 -0.385344 169 139 139 
-15.1639 -135.383 751.5 -0.200689 -0.82697 -0.525209 170 140 140 
-14.4091 -135.545 752.4 -0.6442 0.0990532 -0.758416 171 141 141 
-13.5746 -134.932 749 -0.319804 0.901192 -0.292538 172 142 142 
-12.8427 -135.328 751.2 -0.151123 0.983976 -0.0946203 174 144 144 
-12.0357 -134.932 749 -0.371078 0.917754 -0.141524 175 145 145 
-11.2768 -135.058 749.7 -0.695675 0.501932 -0.513907 178 150 147 
-10.4884 -134.824 748.4 -0.184574 -0.554103 -0.811728 179 151 148 
-9.72994 -134.968 749.2 0.130598 0.130892 -0.982757 180 152 149 
-8.94594 -134.752 748 -0.509016 0.784863 -0.353403 177 149 146 
-8.17315 -134.68 747.6 0.638101 -0.135093 -0.758008 177 149 146 
-7.40712 -134.716 747.8 -0.84249 0.421194 -0.335865 177 149 146 
-6.6105 -134.139 744.6 -0.758642 -0.120241 -0.640316 177 149 146 
-5.84636 -134.158 744.7 -0.728541 -0.284133 -0.623295 178 148 146 
-5.07042 -133.869 743.1 -0.719049 0.106491 -0.686752 178 148 146 
-4.30066 -133.671 742 -0.383889 0.72182 -0.575852 178 148 146 
-3.54127 -133.779 742.6 -0.298056 0.348387 -0.888701 178 148 146 
-2.7668 -133.221 739.5 -0.721668 0.581501 -0.375569 179 149 147 
-2.0063 -133.167 739.2 -0.438615 -0.616798 -0.653587 179 149 147 
-1.24574 -133.041 738.5 -0.742821 -0.424691 -0.517547 179 149 147 
-0.486289 -132.824 737.3 -0.8257 0.037497 -0.562862 179 149 147 
0.270658 -132.59 736 -0.763849 0.544015 -0.347248 179 151 148 
1.03428 -133.563 741.4 -0.591835 -0.625995 -0.507801 180 152 149 
1.79301 -133.347 740.2 -0.803242 0.448378 -0.392121 180 152 149 
2.54548 -132.932 737.9 -0.749117 0.613825 -0.249085 181 153 150 
3.29054 -132.41 735 -0.728899 0.510219 -0.456491 182 154 151 
4.05166 -132.608 736.1 -0.035648 -0.74278 -0.668586 181 153 150 
4.79675 -132.302 734.4 -0.828983 -0.245579 -0.502473 180 152 149 
5.53457 -131.906 732.2 -0.610653 0.567367 -0.552447 180 152 149 
6.30049 -132.194 733.8 -0.484038 0.553225 -0.677975 180 152 148 
7.03029 -131.743 731.3 -0.731481 0.630617 -0.259342 180 152 148 
7.77836 -131.689 731 0.149393 -0.106903 -0.982982 180 152 148 
8.53864 -131.834 731.8 -0.219436 -0.747126 -0.627416 180 152 148 
9.28407 -131.743 731.3 -0.495323 -0.687683 -0.530798 179 151 147 
10.0079 -131.383 729.3 -0.927521 -0.0732752 -0.366518 180 152 148 
10.7232 -130.969 727 -0.294822 -0.490747 -0.819907 180 152 148 
11.4889 -131.185 728.2 0.498817 -0.757417 -0.421309 181 153 149 
12.2656 -131.491 729.9 0.326878 -0.742352 -0.584863 183 154 150 
13.0119 -131.455 729.7 -0.531567 0.686054 -0.496755 183 154 150 
13.7634 -131.473 729.8 -0.191772 0.447685 -0.873385 183 154 150 
14.4952 -131.311 728.9 -0.752953 -0.0442843 -0.656583 183 154 150 
15.2335 -131.221 728.4 0.206948 -0.165524 -0.964248 184 155 151 
16.0059 -131.419 729.5 0.330412 -0.0412914 -0.942933 185 156 152 
16.7599 -131.455 729.7 -0.593235 -0.0537986 -0.80323 186 157 153 
17.4544 -131.041 727.4 -0.940806 0.0654831 -0.33256 186 157 153 
18.1541 -130.699 725.5 -0.307324 -0.697358 -0.647491 186 157 153 
18.9202 -130.843 726.3 0.161587 -0.738795 -0.654272 187 158 154 
19.6934 -131.023 727.3 -0.667991 -0.511466 -0.540547 188 159 155 
20.3563 -130.482 724.3 -0.441528 -0.792548 -0.420619 189 160 156 
21.0858 -130.392 723.8 0.0549882 -0.898135 -0.436267 189 160 156 
21.8474 -130.5 724.4 -0.214671 -0.762516 -0.610316 190 161 157 
22.5667 -130.356 723.6 -0.133263 -0.76582 -0.629095 190 161 157 
23.3358 -130.5 724.4 -0.192751 -0.842326 -0.503322 192 162 160 
24.0002 -130.068 722 -0.598415 -0.598492 -0.532641 193 163 161 
24.7419 -130.068 722 0.0451667 -0.765992 -0.641262 194 164 162 
25.5118 -130.212 722.8 -0.0670068 -0.770619 -0.633764 194 164 162 
26.2435 -130.158 722.5 -0.000103355 -0.479687 -0.877439 194 164 162 
27.0043 -130.248 723 -0.174225 -0.48694 -0.855883 195 165 163 
27.6742 -129.906 721.1 -0.778561 0.0748451 -0.62309 196 166 164 
28.4189 -129.924 721.2 -0.178223 0.846939 -0.50093 196 166 164 
29.1598 -129.924 721.2 -0.509021 0.830456 -0.226364 195 165 163 
29.8385 -129.654 719.7 0.57172 0.3035 -0.76225 195 165 163 
30.667 -130.032 721.8 0.770871 -0.183418 -0.610013 195 165 163 
31.3737 -129.888 721 -0.498109 0.498182 -0.709719 195 165 163 
32.1411 -129.996 721.6 -0.282291 0.368987 -0.885528 195 165 163 
32.8733 -129.96 721.4 -0.857127 0.441532 -0.265298 196 166 164 
33.5072 -129.546 719.1 0.288505 -0.287556 -0.913278 197 167 165 
34.2984 -129.744 720.2 -0.331498 -0.436468 -0.836424 197 167 165 
34.9944 -129.582 719.3 -0.438482 -0.140035 -0.887763 198 168 166 
35.7135 -129.51 718.9 -0.291387 0.860875 -0.417118 198 168 166 
36.452 -129.51 718.9 -0.547783 0.785472 -0.28804 198 168 166 
37.1026 -129.203 717.2 -0.695471 0.271428 -0.665317 198 168 166 
37.8446 -129.221 717.3 -0.45983 0.229834 -0.857748 198 168 166 
38.5224 -129.023 716.2 -0.176908 0.419584 -0.890311 198 168 166 
39.3294 -129.257 717.5 0.147318 -0.540212 -0.828534 198 168 166 
39.9827 -128.987 716 -0.516376 -0.590166 -0.620532 198 168 166 
40.7182 -128.987 716 -0.0519538 -0.713778 -0.698443 198 170 167 
41.4711 -129.041 716.3 0.137551 -0.366644 -0.920137 198 170 167 
42.3425 -129.456 718.6 0.429393 -0.26834 -0.862331 200 172 169 
42.9668 -129.113 716.7 -0.767267 -0.500662 -0.400799 200 172 169 
43.6421 -128.933 715.7 0.00912196 -0.828237 -0.560304 201 173 170 
44.4642 -129.185 717.1 0.233286 -0.412792 -0.880443 202 174 171 
45.1567 -129.059 716.4 -0.480333 0.146297 -0.864799 202 174 171 
45.867 -128.987 716 0.365479 -0.365483 -0.856065 203 175 171 
46.6351 -129.077 716.5 -0.0520893 -0.519121 -0.853112 203 175 171 
47.3646 -129.059 716.4 0.100896 -0.870827 -0.481125 204 176 172 
48.0804 -129.005 716.1 -0.201566 -0.829251 -0.521261 205 177 173 
48.891 -129.203 717.2 -0.244857 -0.634702 -0.732938 206 178 174 
49.4687 -128.789 714.9 -0.828755 0.0137674 -0.559442 206 178 174 
50.175 -128.717 714.5 -0.590651 0.406207 -0.697228 206 178 174 
50.909 -128.717 714.5 0.713817 -0.388204 -0.582892 206 178 174 
51.7514 -128.987 716 0.355662 -0.739418 -0.571634 206 178 175 
52.443 -128.879 715.4 -0.781951 -0.42553 -0.455496 206 178 175 
53.0961 -128.681 714.3 -0.863093 -0.163074 -0.477993 206 178 175 
53.7546 -128.501 713.3 -0.953493 0.140948 -0.266429 207 177 175 
54.2658 -127.978 710.4 0.385028 -0.7099 -0.589742 208 178 176 
55.1737 -128.393 712.7 -0.564067 -0.608018 -0.558697 209 178 176 
55.5293 -127.528 707.9 0.0349209 -0.162896 -0.986025 209 178 176 
56.3439 -127.726 709 0.215267 -0.312052 -0.925356 209 178 176 
57.2172 -128.05 710.8 0.648543 -0.61607 -0.447044 210 179 177 
58.0534 -128.285 712.1 0.293737 -0.814065 -0.501015 211 180 178 
58.8674 -128.465 713.1 -0.147277 -0.737459 -0.659138 213 182 180 
59.3911 -128.014 710.6 -0.404396 -0.639446 -0.653891 214 184 182 
60.2057 -128.195 711.6 -0.215277 -0.758801 -0.614717 215 185 183 
60.8853 -128.086 711 -0.803843 0.291826 -0.518338 214 186 183 
61.4337 -127.708 708.9 -0.908454 0.208367 -0.362345 215 187 184 
62.0392 -127.456 707.5 -0.810546 -0.36264 -0.459898 216 188 185 
62.6862 -127.294 706.6 0.340927 -0.779726 -0.525163 218 188 186 
63.6992 -127.87 709.8 0.595325 -0.694071 -0.404787 218 188 186 
64.3377 -127.69 708.8 -0.155983 -0.520456 -0.839521 219 189 187 
65.2219 -127.996 710.5 0.0878814 -0.109974 -0.990042 219 189 187 
65.7939 -127.69 708.8 -0.816178 0.573059 -0.0738709 219 189 187 
66.2405 -127.15 705.8 -0.632013 0.726755 -0.269047 219 189 187 
67.089 -127.384 707.1 0.660674 -0.603881 -0.445913 219 189 187 
67.9688 -127.672 708.7 0.0765691 -0.815714 -0.573366 219 191 188 
68.5321 -127.366 707 -0.801252 -0.0153726 -0.598129 219 191 188 
69.2975 -127.438 707.4 0.163455 -0.703937 -0.691199 219 191 188 
70.0441 -127.474 707.6 0.099862 -0.825982 -0.55478 219 191 188 
70.811 -127.546 708 0.421927 -0.75523 -0.501603 220 192 189 
71.7808 -127.978 710.4 0.578282 0.0529266 -0.814118 220 192 189 
72.4085 -127.798 709.4 -0.574257 0.812452 -0.100752 220 192 189 
72.9311 -127.438 707.4 0.300664 -0.179489 -0.936688 220 192 189 
73.7723 -127.636 708.5 0.214476 -0.765897 -0.606137 221 192 188 
74.5738 -127.762 709.2 -0.420727 -0.471334 -0.775134 221 192 188 
75.1112 -127.438 707.4 -0.74979 0.599696 -0.279606 221 192 188 
75.6878 -127.186 706 -0.370469 0.895304 -0.247353 221 192 188 
76.543 -127.402 707.2 0.698333 0.615635 -0.365136 222 193 189 
77.346 -127.528 707.9 0.443246 0.75624 -0.481283 222 193 189 
78.1063 -127.582 708.2 0.199224 0.26613 -0.943125 222 193 189 
78.9897 -127.834 709.6 0.673565 -0.318426 -0.667019 222 193 189 
79.7523 -127.888 709.9 -0.546039 0.546054 -0.635347 224 194 192 
80.3116 -127.618 708.4 -0.808639 0.559164 -0.182864 224 194 192 
80.8563 -127.33 706.8 -0.755121 0.59095 -0.283847 224 194 192 
