ply
format ascii 1.0
comment pointcloud saved from 3DCamera
element vertex 772
property float x
property float y
property float z
property float nx
property float ny
property float nz
property uchar red
property uchar green
property uchar blue
end_header
133.347 146.898 863.3 -0.801491 -0.580587 -0.143283 227 199 195 
133.643 146.251 859.5 -0.527212 0.5633 -0.636192 227 199 195 
133.947 145.622 855.8 0.914657 -0.170967 -0.366295 227 199 195 
135.33 146.166 859 -0.630526 -0.676693 -0.380162 227 199 195 
135.832 145.758 856.6 -0.742413 -0.574555 -0.344543 225 197 193 
136.409 145.434 854.7 -0.853564 0.404802 -0.327969 225 197 193 
138.315 146.523 861.1 -0.56006 0.335744 -0.757369 225 197 193 
139.232 146.557 861.3 -0.912492 -0.2235 -0.342646 225 197 194 
139.32 145.724 856.4 -0.884863 0.385645 -0.261336 225 197 194 
142.017 147.612 867.5 0.0734437 0.813903 -0.57634 225 197 194 
142.447 147.136 864.7 -0.956954 0.175188 -0.231406 225 197 194 
142.771 146.557 861.3 -0.996548 -0.0139522 -0.0818342 224 196 193 
144.523 147.442 866.5 0 0 0 224 196 193 
145.128 147.153 864.8 -0.944404 0.306329 -0.11943 224 196 193 
145.392 146.523 861.1 -0.610732 -0.203713 -0.765185 224 196 193 
146.65 146.898 863.3 -0.620472 -0.485101 -0.616192 224 196 193 
147.161 146.523 861.1 -0.983532 0.0779319 -0.163069 224 196 193 
147.186 145.673 856.1 -0.995953 0.0726628 -0.0528973 224 196 193 
147.547 145.162 853.1 -0.249076 -0.918954 -0.305754 224 196 193 
149.084 145.809 856.9 0.859681 -0.430787 -0.274538 224 196 193 
150.262 146.098 858.6 0 0 0 225 197 194 
152.693 147.595 867.4 -0.0156289 -0.992989 -0.117166 226 198 195 
153.372 147.391 866.2 -0.904775 -0.417171 -0.0857381 227 199 196 
153.496 146.659 861.9 -0.919873 0.340092 -0.195373 226 200 201 
155.277 147.51 866.9 0 0 0 227 201 202 
155.663 147.034 864.1 -0.866003 -0.500003 -0.00600331 228 202 203 
155.989 146.506 861 -0.478821 -0.706329 -0.521372 229 203 204 
157.019 146.642 861.8 0.389919 -0.121785 -0.91276 230 204 205 
156.402 145.247 853.6 0 0 0 231 205 206 
159.453 147.255 865.4 -0.561812 0.777072 -0.283771 232 206 207 
159.434 146.421 860.5 0.43508 -0.126437 -0.89147 233 207 208 
160.747 146.813 862.8 0.728267 -0.418138 -0.542943 235 209 208 
161.746 146.915 863.4 0.212372 -0.524622 -0.824421 235 209 208 
163.104 147.34 865.9 0.867308 -0.334647 -0.368494 235 211 209 
161.948 145.502 855.1 0.474422 -0.835626 -0.276863 236 212 210 
163.15 145.792 856.8 -0.12335 -0.922014 -0.366981 236 212 210 
163.111 144.975 852 -0.804047 0.587181 -0.0934214 235 214 211 
164.333 145.281 853.8 0 0 0 236 215 212 
167.125 146.966 863.7 -0.519876 0.824544 -0.223283 237 216 213 
167.41 146.438 860.6 -0.321775 0.708861 -0.627675 237 216 211 
168.176 146.336 860 -0.754357 -0.39068 -0.527556 237 216 211 
168.765 146.081 858.5 -0.548869 -0.831627 -0.0844896 237 216 211 
169.37 145.843 857.1 0.378254 -0.895861 -0.233147 237 216 211 
170.807 146.319 859.9 0.778023 -0.352929 -0.519731 238 217 212 
172.23 146.779 862.6 0.532009 -0.808232 -0.252445 237 216 211 
173.497 147.102 864.5 0.195153 -0.975766 -0.098973 236 215 210 
174.425 147.136 864.7 0.046825 -0.980968 -0.188438 236 215 210 
175.719 147.476 866.7 -0.249068 0.900166 -0.357303 237 213 209 
176.345 147.255 865.4 -0.262944 0.905154 -0.334001 237 213 209 
176.701 146.813 862.8 -0.423055 -0.812096 -0.401902 236 212 208 
176.908 146.251 859.5 -0.875295 -0.186388 -0.446227 235 211 207 
177.667 146.149 858.9 -0.810071 -0.392393 -0.435674 233 209 205 
178.238 145.894 857.4 0.204805 -0.67731 -0.706616 233 209 205 
180.644 147.136 864.7 -0.141427 -0.964284 -0.223953 234 210 206 
181.532 147.136 864.7 -0.824065 -0.475544 -0.307853 235 211 207 
181.513 146.404 860.4 0.275326 -0.189235 -0.942542 233 212 207 
183.457 147.255 865.4 0.817062 -0.28662 -0.500259 233 212 207 
185.219 147.953 869.5 -0.942374 -0.334379 0.0110253 234 213 208 
185.385 147.374 866.1 -0.920814 -0.389858 0.0106021 235 214 209 
185.651 146.881 863.2 0.122995 -0.967029 -0.222995 237 216 211 
186.926 147.187 865 0.410869 -0.885016 -0.218937 237 216 211 
188.141 147.442 866.5 -0.75488 -0.615071 -0.227692 238 217 212 
188.18 146.779 862.6 -0.982266 0.180591 -0.0504102 239 218 213 
188.299 146.183 859.1 -0.858902 0.0947487 -0.503299 243 219 217 
189.424 146.37 860.2 0.804799 -0.334688 -0.490186 243 219 217 
190.75 146.711 862.2 0.55657 -0.533974 -0.636476 244 220 218 
191.436 146.557 861.3 -0.279932 0.72145 -0.633363 245 221 219 
192.343 146.574 861.4 -0.206285 0.834624 -0.510734 247 223 219 
193.205 146.557 861.3 0.692879 -0.403708 -0.597444 247 223 219 
194.338 146.745 862.4 0.340535 0.47359 -0.812249 247 223 219 
195.518 146.966 863.7 0.26304 0.795941 -0.545241 247 223 219 
196.36 146.932 863.5 -0.502305 0.689393 -0.521945 247 223 219 
196.539 146.404 860.4 -0.367956 0.845992 -0.385883 248 222 221 
198.639 147.306 865.7 0.620838 -0.289441 -0.728549 248 222 221 
199.92 147.595 867.4 0.504597 -0.827915 -0.244823 248 223 219 
201.205 147.885 869.1 0.503442 -0.830271 -0.239158 248 220 216 
202.958 148.514 872.8 0 0 0 248 220 216 
202.874 147.8 868.6 -0.68081 0.69122 -0.242306 247 219 215 
202.945 147.204 865.1 -0.917178 0.213036 -0.336749 247 219 215 
203.527 146.983 863.8 0.0474371 -0.633891 -0.771967 246 218 215 
204.486 147.034 864.1 -0.778203 0.421525 -0.465529 246 218 215 
205.183 146.898 863.3 -0.283436 -0.397425 -0.872764 246 218 215 
206.333 147.085 864.4 0.795683 -0.502801 -0.337757 245 217 213 
208.299 147.851 868.9 0.691762 -0.452516 -0.562756 245 217 213 
209.337 147.953 869.5 0.734807 -0.426648 -0.527286 245 217 213 
210.883 148.412 872.2 0.750967 -0.344375 -0.56343 245 217 213 
210.783 147.714 868.1 -0.806557 -0.58281 -0.0989821 247 219 215 
211.943 147.902 869.2 0.586268 0.40881 -0.699403 247 219 215 
213.326 148.242 871.2 0.28166 0.188286 -0.940859 247 219 215 
213.803 147.953 869.5 -0.408755 0.579106 -0.705376 247 219 215 
214.647 147.919 869.3 -0.077963 0.916874 -0.391489 247 219 215 
215.688 148.021 869.9 0.307796 0.544814 -0.780025 247 219 215 
216.831 148.191 870.9 0.660714 0.0955909 -0.744527 246 218 214 
218.576 148.769 874.3 0.0364273 0.0373037 -0.99864 245 217 213 
218.52 148.123 870.5 -0.290742 -0.599532 -0.745675 247 216 213 
220.145 148.616 873.4 0.736377 -0.539765 -0.407925 247 216 213 
221.675 149.042 875.9 -0.934681 -0.131536 -0.330258 247 216 213 
221.533 148.344 871.8 -0.989652 0.142851 0.0134825 247 216 213 
275.646 157.788 927.3 0 0 0 249 218 215 
275.584 157.209 923.9 0 0 0 250 219 216 
282.211 158.264 930.1 -0.714074 0.697165 -0.0637138 235 210 206 
282.717 157.482 925.5 -0.72068 -0.692056 -0.0409729 206 185 180 
282.595 156.886 922 -0.99218 -0.112644 0.0537549 184 165 159 
285.08 157.737 927 0 0 0 169 156 148 
95.1159 150.438 878.8 -0.960165 0.141929 -0.240707 175 144 142 
95.7893 150.078 876.7 -0.733814 0.101939 -0.671658 177 147 145 
96.5686 149.89 875.6 -0.539974 -0.0844498 -0.837434 179 149 147 
97.6016 150.096 876.8 0.266169 0.434615 -0.860386 182 154 151 
98.4799 150.061 876.6 -0.748618 0.482305 -0.454921 185 157 154 
99.1877 149.77 874.9 -0.793382 -0.561896 -0.234134 190 162 158 
100.087 149.77 874.9 -0.884546 0.310058 -0.348486 191 163 159 
100.754 149.428 872.9 -0.840576 0.30315 -0.448922 194 166 163 
101.523 149.24 871.8 -0.947855 0.0237678 -0.317814 197 169 166 
102.101 148.777 869.1 -0.529139 -0.826951 -0.190168 200 172 171 
102.982 148.76 869 -0.130025 -0.93782 -0.321849 200 172 171 
103.935 148.846 869.5 0.776188 -0.307976 -0.550166 203 174 176 
105.009 149.103 871 0.440757 0.586638 -0.679403 204 175 177 
106.086 149.359 872.5 -0.611343 0.583216 -0.534901 204 178 177 
106.566 148.777 869.1 -0.76932 0.587482 -0.251022 204 179 175 
106.939 148.058 864.9 -0.748231 0.499051 -0.437148 207 182 178 
107.79 148.007 864.6 0.394946 -0.790027 -0.468908 208 183 179 
109.056 148.521 867.6 0.670527 -0.70614 -0.227505 211 186 182 
109.782 148.298 866.3 -0.390949 -0.694578 -0.603921 211 186 182 
110.876 148.572 867.9 -0.528317 0.100376 -0.843093 212 187 183 
111.459 148.161 865.5 -0.885142 0.296172 -0.358896 213 188 184 
111.907 147.579 862.1 -0.0590791 -0.228496 -0.971751 217 189 188 
113.368 148.332 866.5 0.829432 0.240764 -0.504059 217 189 188 
114.021 148.024 864.7 -0.735716 0.575329 -0.357377 218 190 189 
114.285 147.22 860 -0.579534 -0.800788 -0.15126 219 191 190 
115.181 147.237 860.1 -0.159931 -0.968802 -0.189327 219 191 190 
115.903 147.031 858.9 -0.0174773 -0.991908 -0.125749 220 192 191 
117.846 148.367 866.7 0.457718 0.748726 -0.479483 221 193 192 
118.01 147.459 861.4 -0.896489 -0.188534 -0.400951 221 193 192 
118.481 146.946 858.4 -0.878845 -0.452687 -0.150686 222 194 193 
119.21 146.757 857.3 -0.0296463 -0.929824 -0.366808 222 194 191 
120.189 146.877 858 -0.263247 0.800959 -0.53774 222 194 191 
121.112 146.929 858.3 0.775816 -0.427052 -0.464473 222 194 191 
122.307 147.305 860.5 0.381652 -0.860835 -0.336608 222 194 191 
123.005 147.083 859.2 0.416544 0.413878 -0.809442 224 196 193 
124.349 147.631 862.4 0.723938 0.538054 -0.431754 225 197 194 
125.394 147.819 863.5 -0.569024 0.751701 -0.333403 225 197 194 
125.404 146.792 857.5 0 0 0 225 197 194 
126.535 147.083 859.2 -0.864331 0.478599 -0.154517 225 197 194 
126.854 146.432 855.4 -0.524457 0.799184 -0.293682 225 197 194 
127.375 146.021 853 -0.434821 0.867189 -0.242724 225 197 194 
130.161 148.195 865.7 0 0 0 225 197 194 
130.187 147.22 860 -0.168801 -0.395284 -0.902916 226 198 195 
130.568 146.655 856.7 -0.747712 0.634782 -0.194882 227 199 196 
130.788 145.919 852.4 0 0 0 227 199 196 
133.981 148.486 867.4 0 0 0 228 200 196 
133.768 147.271 860.3 0.681742 -0.448971 -0.577627 228 200 196 
135.011 147.665 862.6 -0.53846 -0.582719 -0.608687 228 200 196 
135.236 146.946 858.4 -0.589586 -0.392086 -0.706156 228 200 196 
135.547 146.329 854.8 -0.709116 -0.612083 -0.350012 228 200 196 
136.553 146.466 855.6 -0.889786 -0.0173811 -0.456048 228 200 196 
138.251 147.339 860.7 -0.924932 0.136264 -0.354871 228 200 196 
138.86 147.048 859 -0.835927 -0.0910699 -0.541233 228 200 196 
139.482 146.775 857.4 -0.802727 0.44064 -0.401828 228 200 197 
140.412 146.826 857.7 0.532408 -0.319795 -0.783756 228 200 197 
141.755 147.305 860.5 0.555257 -0.814252 -0.169362 228 200 197 
144.44 148.247 866 0 0 0 226 198 195 
145.628 147.648 862.5 -0.752173 0.569966 -0.330717 226 198 195 
146.514 147.648 862.5 -0.342765 -0.0743451 -0.936475 227 199 196 
146.871 147.117 859.4 -0.886405 -0.365862 -0.283605 227 199 196 
147.667 147.031 858.9 -0.737467 0.538683 -0.407385 227 199 196 
149.951 148.418 867 -0.916796 -0.389567 -0.0878739 227 199 196 
150.389 147.973 864.4 -0.916796 -0.389567 -0.0878739 227 199 196 
151.452 148.144 865.4 -0.673516 -0.738674 -0.0271509 227 199 196 
151.954 147.767 863.2 0.226751 -0.95081 -0.211056 228 200 197 
153.035 147.956 864.3 -0.404594 -0.890755 -0.207025 229 201 198 
153.549 147.596 862.2 -0.9783 -0.192426 -0.0768185 229 203 204 
153.844 147.031 858.9 -0.880077 -0.420461 -0.220628 229 203 204 
154.834 147.134 859.5 0.773597 -0.170877 -0.610204 230 204 205 
155.518 146.946 858.4 0.641795 0.465936 -0.609101 231 205 206 
157.038 147.545 861.9 0.393246 -0.57566 -0.716919 233 207 208 
157.648 147.288 860.4 -0.912147 -0.243642 -0.329585 233 207 208 
158.753 147.494 861.6 0 0 0 234 208 209 
158.99 146.894 858.1 0.848823 -0.456239 -0.267106 235 209 210 
160.616 147.579 862.1 0.746104 -0.555472 -0.367122 237 211 210 
161.858 147.904 864 -0.498474 -0.396116 -0.771113 238 212 211 
162.331 147.528 861.8 -0.317133 -0.920598 -0.227873 238 214 212 
161.872 146.312 854.7 0.380626 -0.380626 -0.842762 239 215 213 
162.826 146.381 855.1 0.483312 -0.734555 -0.476276 238 217 214 
163.781 146.449 855.5 -0.895967 0.367681 -0.249104 239 218 215 
165.661 147.339 860.7 -0.389143 -0.920225 -0.0418743 239 220 216 
165.965 146.826 857.7 0.54079 -0.68426 -0.489218 240 221 217 
167.857 147.716 862.9 -0.82845 0.136083 -0.54328 241 220 217 
168.724 147.699 862.8 -0.196151 0.660562 -0.724695 241 220 217 
168.49 146.723 857.1 0.394339 -0.633018 -0.666172 241 220 217 
168.461 145.936 852.5 0 0 0 238 217 214 
171.165 147.511 861.7 0.0546342 0.839561 -0.540512 239 218 215 
171.93 147.408 861.1 -0.278927 0.513992 -0.811179 239 218 215 
172.634 147.254 860.2 0.104888 -0.804576 -0.584514 238 217 214 
173.518 147.254 860.2 -0.0915391 -0.947045 -0.307777 237 216 213 
174.482 147.322 860.6 -0.449524 -0.877645 -0.166336 239 215 211 
175.02 147.031 858.9 -0.514544 -0.849414 -0.117216 238 214 210 
175.739 146.894 858.1 0.170746 -0.97317 -0.15423 237 213 209 
176.847 147.083 859.2 0.126513 -0.929998 -0.345107 237 213 209 
177.688 147.048 859 -0.478865 0.588743 -0.651207 234 210 206 
178.113 146.672 856.8 -0.114187 0.644607 -0.755938 235 211 207 
179.766 147.305 860.5 0.614432 -0.725908 -0.309081 236 212 208 
180.734 147.374 860.9 0.305526 -0.915048 -0.263328 237 213 209 
181.935 147.631 862.4 -0.015284 0.412872 -0.910661 234 213 208 
183.181 147.922 864.1 0.740164 -0.328027 -0.586989 235 214 209 
183.43 147.408 861.1 0.38708 -0.896274 -0.216478 236 215 210 
185.128 148.058 864.9 -0.424274 -0.896246 -0.129366 237 216 211 
185.285 147.476 861.5 -0.898707 -0.238415 -0.368082 238 217 212 
186.278 147.562 862 0.244789 -0.227512 -0.942506 239 218 213 
187.294 147.665 862.6 -0.0259421 -0.956895 -0.289274 240 219 214 
187.984 147.511 861.7 -0.651428 -0.719313 -0.241311 241 220 215 
188.146 146.946 858.4 -0.835795 -0.0635208 -0.545354 244 220 218 
189.336 147.185 859.8 0.750748 0.122039 -0.649219 245 221 221 
190.794 147.631 862.4 0.626079 -0.312455 -0.714421 246 222 220 
191.903 147.802 863.4 0.387848 0.68506 -0.616658 247 223 221 
193.325 148.213 865.8 0.321445 0.837 -0.442837 248 224 220 
193.048 147.322 860.6 0.0904903 -0.852085 -0.515521 248 224 220 
194.09 147.442 861.3 0.49353 -0.775442 -0.393851 248 224 220 
196.288 148.435 867.1 0.0938738 0.905983 -0.412773 248 225 219 
197.042 148.332 866.5 -0.648546 0.719025 -0.249782 248 224 222 
197.064 147.682 862.7 -0.760996 0.524851 -0.381336 248 224 222 
198.203 147.87 863.8 0.432044 -0.707909 -0.558751 248 224 222 
199.298 148.024 864.7 0.429663 -0.867681 -0.250038 249 224 220 
200.557 148.298 866.3 -0.085068 -0.953965 -0.287599 248 223 219 
200.563 147.648 862.5 -0.955646 0.188079 -0.226643 249 221 217 
201.075 147.374 860.9 -0.373843 0.679803 -0.630959 248 220 216 
203.578 148.555 867.8 -0.694774 0.695083 -0.184795 247 219 216 
204.022 148.23 865.9 0.76357 -0.0420657 -0.644353 247 219 216 
205.551 148.692 868.6 -0.0843524 0.738424 -0.66904 247 219 216 
205.659 148.127 865.3 -0.540861 0.786679 -0.297666 247 219 216 
206.094 147.802 863.4 0.276874 0.632479 -0.723402 247 219 216 
208.06 148.572 867.9 0.727875 -0.337256 -0.59704 247 219 216 
208.518 148.264 866.1 0.595966 -0.464142 -0.655284 247 219 216 
209.915 148.623 868.2 -0.253153 -0.144472 -0.956578 247 219 216 
209.958 148.024 864.7 -0.941141 0.105847 -0.321015 247 219 216 
210.675 147.904 864 0.549096 -0.398745 -0.734504 249 219 217 
213.718 149.411 872.8 -0.347904 0.795568 -0.496018 249 219 217 
213.778 148.829 869.4 -0.159441 0.440476 -0.883493 249 219 217 
215.807 149.616 874 0.280785 0.844068 -0.456847 248 218 216 
216.383 149.394 872.7 -0.219795 0.871967 -0.437451 248 218 216 
217.08 149.257 871.9 0.48559 0.121126 -0.865755 247 217 215 
218.351 149.514 873.4 -0.170634 -0.394431 -0.902944 246 216 214 
218.369 148.914 869.9 -0.921174 -0.245607 -0.301853 246 216 214 
219.893 149.342 872.4 0.261823 -0.904437 -0.336814 246 216 214 
220.233 148.966 870.2 -0.859893 -0.508431 -0.045632 246 216 214 
221.889 149.479 873.2 -0.945809 0.323954 -0.0223533 246 216 214 
226.768 150.335 878.2 0.366818 -0.366812 -0.854923 245 215 213 
226.581 149.616 874 -0.70429 0.704278 -0.0892586 246 215 213 
274.154 158.98 928.7 0 0 0 247 216 213 
274.604 158.689 927 -0.689438 -0.723051 0.0432648 248 217 214 
274.873 158.295 924.7 -0.689438 -0.723051 0.0432648 249 218 215 
273.675 157.063 917.5 0 0 0 250 219 216 
276.683 158.244 924.4 0.379734 0.762678 -0.523568 252 216 216 
281.005 158.004 923 -0.779503 0.574663 -0.249274 230 206 202 
281.373 157.679 921.1 -0.0898231 -0.914354 -0.394827 214 193 188 
282.809 157.953 922.7 -0.450019 -0.878069 -0.162722 196 175 170 
95.2242 151.513 879.8 -0.937286 0.283288 -0.203084 170 139 136 
95.7674 150.945 876.5 -0.738972 -0.442372 -0.508161 175 146 142 
96.745 151.065 877.2 -0.643005 -0.607186 -0.466765 177 148 144 
97.4013 150.686 875 0.28723 -0.879256 -0.38001 180 152 148 
98.581 151.117 877.5 -0.237077 -0.724931 -0.646737 183 155 151 
99.0517 150.462 873.7 -0.905827 0.36434 -0.216178 188 160 156 
99.4802 149.756 869.6 -0.259751 0.779639 -0.569819 190 162 158 
100.835 150.445 873.6 -0.366463 -0.594083 -0.71608 193 165 162 
101.511 150.118 871.7 -0.861888 0.304013 -0.405863 195 167 164 
102.043 149.584 868.6 -0.898111 0.371554 -0.235253 198 170 169 
102.71 149.257 866.7 -0.30709 -0.822518 -0.478706 198 170 169 
103.827 149.584 868.6 0.61485 -0.759272 -0.213226 201 172 174 
105.419 150.583 874.4 0.146308 0.900425 -0.40967 203 174 176 
106.269 150.514 874 -0.714641 0.577303 -0.394981 203 177 176 
106.688 149.842 870.1 -0.978823 0.0674421 -0.19328 203 178 174 
107.298 149.446 867.8 -0.864527 0.380523 -0.328322 206 181 177 
108.052 149.257 866.7 -0.658835 0.569876 -0.491098 207 182 178 
108.678 148.895 864.6 0.604234 -0.497292 -0.622577 211 186 182 
109.934 149.395 867.5 0.196665 -0.56553 -0.800936 211 186 182 
110.353 148.758 863.8 -0.564751 -0.779123 -0.272072 212 187 183 
110.944 148.361 861.5 0.495266 -0.848596 -0.186002 213 188 184 
111.972 148.551 862.6 -0.352651 -0.84877 -0.393989 218 190 189 
112.792 148.465 862.1 -0.0542331 -0.971454 -0.230944 218 190 189 
113.48 148.206 860.6 -0.490231 -0.791814 -0.364286 219 191 190 
113.979 147.707 857.7 -0.735324 0.49087 -0.467274 220 192 191 
114.766 147.586 857 -0.300331 -0.854462 -0.423905 220 192 191 
116.632 148.844 864.3 0 0.893678 -0.448708 221 193 192 
117.52 148.844 864.3 -0.67873 0.687581 -0.257988 221 193 192 
117.887 148.189 860.5 -0.714637 0.47737 -0.511284 222 194 193 
118.964 148.43 861.9 -0.308004 0.482993 -0.819665 222 194 193 
120.461 149.188 866.3 0.69452 -0.710385 -0.113996 221 195 194 
120.791 148.499 862.3 -0.659465 0.471903 -0.585162 221 195 194 
121.508 148.293 861.1 -0.403493 0.711174 -0.575695 221 195 194 
121.625 147.363 855.7 0.474823 -0.876621 -0.0779674 221 195 194 
122.933 147.879 858.7 0.715595 -0.638074 -0.284227 223 197 196 
124.507 148.706 863.5 0.813823 0.233108 -0.532308 223 197 196 
125.961 149.378 867.4 0.187339 0.877912 -0.440652 224 198 197 
126.399 148.844 864.3 -0.607025 0.764382 -0.21735 226 198 195 
127.169 148.706 863.5 0 0 0 226 198 195 
127.166 147.673 857.5 -0.376475 0.835983 -0.399248 226 198 195 
128.092 147.724 857.8 -0.16753 0.910845 -0.377219 226 198 195 
129.469 148.293 861.1 -0.989562 0.129685 -0.0628328 227 199 196 
129.657 147.5 856.5 -0.926496 -0.329991 -0.18086 227 199 196 
130.994 148.017 859.5 -0.168801 -0.395284 -0.902916 228 200 197 
132.675 148.913 864.7 0 0 0 229 201 198 
133.455 148.792 864 0 0 0 229 201 198 
133.317 147.655 857.4 0.53262 -0.832594 -0.152001 228 200 196 
134.761 148.275 861 0.0509375 -0.887452 -0.458076 228 200 196 
135.204 147.793 858.2 -0.753234 -0.176355 -0.63367 228 200 196 
136.435 148.172 860.4 -0.630759 -0.33942 -0.697809 229 201 197 
136.616 147.414 856 -0.933353 0.248991 -0.258566 229 201 197 
136.709 146.57 851.1 -0.996187 0.0808813 -0.0326969 229 201 197 
139.006 148.086 859.9 -0.3301 0.738028 -0.588514 229 201 197 
139.889 148.086 859.9 -0.154343 0.851416 -0.501268 229 201 198 
140.478 147.776 858.1 -0.448324 0.720092 -0.529598 229 201 198 
141.211 147.621 857.2 0.450078 -0.464498 -0.762674 229 201 198 
142.373 147.914 858.9 0.752878 -0.0924298 -0.651638 227 199 196 
142.905 147.552 856.8 -0.395745 0.883014 -0.252335 227 199 196 
144.004 147.776 858.1 0.442742 0.774024 -0.452621 227 199 196 
145.409 148.31 861.2 0.0013678 0.760403 -0.649451 227 199 196 
147.381 149.412 867.6 0 0 0 228 200 197 
148.152 149.291 866.9 0 0 0 228 200 197 
147.943 148.189 860.5 -0.101863 0.814134 -0.571673 228 200 197 
148.844 148.206 860.6 0.0502315 0.804967 -0.591189 228 200 197 
150.198 148.671 863.3 -0.916796 -0.389567 -0.0878739 228 200 197 
150.174 147.776 858.1 0.893929 -0.249304 -0.372477 229 201 198 
151.531 148.241 860.8 -0.125348 -0.9171 -0.378438 230 202 199 
152.841 148.654 863.2 0.316803 -0.857966 -0.404389 230 202 199 
153.407 148.344 861.4 -0.927946 -0.352394 -0.121387 230 204 205 
153.718 147.793 858.2 -0.951478 -0.282583 -0.121805 231 205 206 
154.438 147.638 857.3 0.602017 -0.714575 -0.356312 232 206 207 
156.152 148.43 861.9 0.453614 0.470258 -0.757028 232 206 207 
156.965 148.361 861.5 -0.510129 -0.510123 -0.692491 234 208 209 
157.483 148.017 859.5 -0.462438 -0.810308 -0.359932 235 209 210 
157.555 147.259 855.1 0 0 0 236 210 211 
157.804 146.674 851.7 0 0 0 236 210 211 
160.262 148.138 860.2 -0.442201 -0.49144 -0.750296 239 213 212 
160.771 147.793 858.2 -0.79515 -0.356325 -0.490683 239 213 212 
161.954 148.069 859.8 -0.65027 -0.737186 -0.183594 239 215 213 
162.175 147.466 856.3 -0.995728 0.0571294 -0.0725404 240 216 214 
164.311 148.603 862.9 -0.82228 0.117957 -0.556725 240 219 216 
164.796 148.241 860.8 -0.692988 0.594259 -0.408197 240 219 216 
164.756 147.414 856 0.106226 -0.993681 -0.0362566 240 221 217 
165.732 147.5 856.5 0.311059 -0.918308 -0.244853 241 222 218 
167.565 148.344 861.4 -0.0604476 -0.492459 -0.868234 242 221 218 
168.255 148.172 860.4 -0.833441 -0.536458 -0.13262 242 221 218 
168.451 147.569 856.9 0.737802 -0.304197 -0.602588 242 221 218 
169.825 148 859.4 0.595804 -0.000177936 -0.80313 242 221 218 
171.621 148.792 864 -0.772332 0.350992 -0.529442 243 222 219 
172.289 148.603 862.9 -0.772914 0.351313 -0.528378 243 222 219 
172.855 148.327 861.3 -0.409865 0.394103 -0.822614 242 221 218 
173.881 148.448 862 -0.203722 0.63644 -0.743937 241 220 217 
174.361 148.103 860 -0.6552 0.572802 -0.492556 243 219 217 
174.633 147.586 857 -0.798525 -0.594706 -0.0931861 241 217 215 
175.268 147.38 855.8 -0.192714 -0.963305 -0.186828 240 216 214 
176.291 147.5 856.5 0.505151 -0.827295 -0.245774 239 215 213 
177.771 148 859.4 0.556487 0.181284 -0.810838 237 213 211 
178.965 148.258 860.9 -0.633945 0.633758 -0.443243 237 213 211 
179.348 147.845 858.5 0.598375 0.121256 -0.791988 238 214 212 
180.377 147.965 859.2 0.286319 0.429153 -0.85665 239 215 213 
182.378 148.878 864.5 -0.143361 0.863833 -0.48295 237 216 213 
182.8 148.499 862.3 -0.275225 0.164891 -0.947134 237 216 213 
182.791 147.776 858.1 0.562935 -0.806143 -0.182311 238 217 214 
184.272 148.258 860.9 0.628769 -0.756058 -0.181728 239 218 215 
184.747 147.931 859 0 0 0 241 220 217 
186.97 148.999 865.2 -0.764293 0.513483 -0.390117 241 220 217 
187.294 148.551 862.6 -0.952498 4.60499e-05 -0.304545 242 221 218 
187.918 148.344 861.4 0.670597 -0.531398 -0.517605 243 222 219 
189.527 148.913 864.7 0.895076 -0.189745 -0.40353 247 223 223 
189.776 148.413 861.8 0.214806 -0.187672 -0.958456 247 223 223 
190.551 148.327 861.3 -0.634023 0.0350493 -0.77252 248 224 224 
190.591 147.673 857.5 -0.612068 0.728489 -0.307696 249 225 223 
191.941 148.034 859.6 -0.273079 -0.236172 -0.93255 249 225 223 
192.846 148.051 859.7 -0.162741 -0.931734 -0.324634 249 225 221 
193.549 147.914 858.9 0.605183 -0.596249 -0.527486 249 225 221 
194.817 148.206 860.6 0.0528398 -0.547074 -0.835415 249 225 221 
195.746 148.241 860.8 -0.430727 -0.897811 -0.0917067 249 225 223 
197.042 148.551 862.6 -0.978061 -0.0489836 -0.202477 249 225 223 
197.882 148.516 862.4 0.0544632 -0.794488 -0.604833 249 225 223 
198.606 148.396 861.7 -0.385425 -0.904218 -0.183949 250 225 221 
198.89 147.948 859.1 -0.906929 -0.420454 -0.0264164 249 224 220 
200.586 148.551 862.6 -0.853995 0.443773 -0.271584 251 223 219 
201.309 148.43 861.9 -0.803203 0.1266 -0.582098 250 222 218 
202.312 148.516 862.4 0.216944 -0.866897 -0.448805 249 221 217 
202.891 148.293 861.1 0.755527 -0.568291 -0.325921 248 220 217 
204.959 149.154 866.1 0.732588 -0.614125 -0.293538 248 220 217 
205.873 149.171 866.2 0.0465564 0.417154 -0.907643 248 220 217 
207.073 149.395 867.5 0.100074 0.830021 -0.548681 248 220 217 
206.549 148.379 861.6 0.887601 -0.0849285 -0.452715 248 220 217 
208.638 149.24 866.6 0.814273 -0.324496 -0.481313 248 220 217 
210.544 149.963 870.8 0.248452 0.787044 -0.564653 248 220 217 
210.346 149.188 866.3 -0.943732 0.295045 -0.149396 249 219 217 
210.895 148.947 864.9 0.746477 0.102479 -0.657472 249 219 217 
212.665 149.567 868.5 0.718668 0.217938 -0.660317 249 219 217 
212.155 148.585 862.8 -0.64285 0.742118 -0.189749 249 219 217 
214.4 149.533 868.3 0 0 0 251 221 219 
215.044 149.36 867.3 0 0 0 250 220 218 
216.781 149.946 870.7 -0.319156 -0.533894 -0.783005 249 219 217 
217.976 150.152 871.9 0.636293 -0.525976 -0.564341 248 218 216 
218.796 150.101 871.6 -0.752575 0.602191 -0.266453 247 217 215 
218.986 149.619 868.8 -0.681189 0.362055 -0.636316 247 217 215 
219.828 149.584 868.6 -0.596434 -0.363321 -0.715726 247 217 215 
223.236 151.289 878.5 0 0 0 247 217 215 
223.832 151.082 877.3 0.513652 -0.842926 -0.160117 247 217 215 
225.297 151.461 879.5 0.48313 -0.858106 -0.173899 247 217 215 
226.072 151.375 879 0 0 0 246 216 214 
225.477 150.376 873.2 0.694888 -0.694876 -0.185146 245 215 213 
227.67 151.237 878.2 0.366818 -0.366812 -0.854923 246 215 213 
274.16 158.832 922.3 -0.689438 -0.723051 0.0432648 250 216 214 
277.461 159.641 927 0.488968 0.621503 -0.612082 250 219 217 
278.804 159.865 928.3 -0.0159672 0.709412 -0.704613 250 219 217 
279.366 159.641 927 -0.940244 0.275027 -0.200752 249 219 217 
278.564 158.643 921.2 0.0141018 0.90521 -0.424731 249 219 217 
279.632 158.711 921.6 0.120827 0.872833 -0.472825 248 218 216 
282.832 159.986 929 0 0 0 236 208 205 
281.8 158.866 922.5 0.33412 0.665272 -0.667665 230 202 199 
284.189 159.676 927.2 0.577315 -0.624329 -0.526232 212 184 181 
96.4142 151.447 874.2 -0.425131 -0.803692 -0.416345 162 133 127 
97.1675 151.221 872.9 -0.595512 -0.462068 -0.65716 168 141 134 
98.2103 151.447 874.2 0.50853 -0.813656 -0.281711 174 147 140 
99.2444 151.654 875.4 -0.778394 -0.376937 -0.502017 180 152 148 
99.8577 151.221 872.9 -0.601765 0.714173 -0.357543 183 155 151 
100.593 150.979 871.5 0.180068 0.793819 -0.580884 188 160 157 
101.476 150.962 871.4 -0.224518 0.759605 -0.610403 192 164 161 
102.477 151.117 872.3 -0.671294 0.67631 -0.303265 195 167 166 
102.817 150.303 867.6 -0.820006 0.532889 -0.208851 196 168 167 
103.421 149.887 865.2 0.718014 -0.606572 -0.341359 200 171 173 
104.768 150.546 869 0.393855 -0.815614 -0.423853 202 173 175 
105.478 150.286 867.5 0.463521 -0.810615 -0.357842 201 175 174 
106.566 150.563 869.1 -0.79094 -0.507651 -0.341621 202 177 173 
107.261 150.286 867.5 -0.896563 -0.385305 -0.218437 206 181 177 
107.965 150.026 866 -0.480396 -0.811027 -0.333849 208 183 179 
108.766 149.905 865.3 0.162983 -0.000453559 -0.986629 209 184 180 
109.719 149.991 865.8 -0.560907 0.504237 -0.656604 209 184 180 
110.148 149.368 862.2 -0.257274 0.70657 -0.659218 212 187 183 
110.557 148.727 858.5 0.899181 -0.23371 -0.369938 213 188 184 
111.79 149.195 861.2 0.0491876 -0.673202 -0.737821 215 187 186 
112.544 149.021 860.2 -0.581032 -0.789372 -0.198226 216 188 187 
113.098 148.588 857.7 -0.237444 -0.96214 -0.13382 218 190 189 
114.258 148.952 859.8 -0.514905 0.697449 -0.498436 220 192 191 
114.994 148.761 858.7 -0.0616378 0.861882 -0.503349 220 192 191 
117.347 150.65 869.6 0 0 0 222 194 193 
117.887 150.199 867 -0.566794 0.764593 -0.306827 223 195 194 
118.229 149.506 863 -0.954691 0.2214 -0.198863 224 196 195 
119.53 150.026 866 -0.735371 0.656694 -0.167277 224 196 195 
119.836 149.298 861.8 -0.517502 0.764755 -0.383851 222 196 195 
120.455 148.969 859.9 -0.662311 0.691913 -0.287402 223 197 196 
121.028 148.588 857.7 -0.940179 0.159557 -0.301005 224 198 197 
122.705 149.558 863.3 0.461941 -0.88311 -0.0820244 224 198 197 
124.036 150.095 866.4 0 0 0 225 199 198 
124.58 149.68 864 -0.94052 -0.329967 -0.0808917 225 199 198 
124.857 148.952 859.8 -0.98858 -0.106362 -0.106751 225 199 198 
125.521 148.692 858.3 -0.781827 -0.616773 -0.0913115 225 199 198 
126.035 148.259 855.8 -0.808444 -0.585004 -0.064723 225 199 198 
128.056 149.593 863.5 -0.802914 -0.594735 -0.0402484 226 200 199 
128.525 149.108 860.7 -0.749951 -0.263893 -0.606576 227 201 200 
128.567 148.138 855.1 0 0 0 227 201 200 
129.748 148.484 857.1 -0.955085 0.285432 -0.0796312 228 202 201 
129.882 147.635 852.2 -0.931987 0.35204 -0.0864147 229 203 202 
131.862 148.883 859.4 -0.874873 -0.292119 -0.386348 230 204 203 
132.698 148.831 859.1 -0.183203 -0.917957 -0.351839 232 204 201 
132.695 147.843 853.4 0.859156 -0.172416 -0.481792 232 204 201 
133.697 147.982 854.2 0.792064 -0.0130148 -0.610299 232 204 201 
135.346 148.831 859.1 0.756977 -0.271082 -0.594558 232 204 201 
136.276 148.883 859.4 -0.354866 0.545471 -0.759297 232 204 201 
136.744 148.432 856.8 -0.61179 0.709771 -0.349198 232 204 201 
137.544 148.346 856.3 -0.260762 0.895028 -0.36184 232 204 201 
138.311 148.224 855.6 -0.203727 0.902227 -0.380107 232 204 201 
140.214 149.316 861.9 0.465934 0.669572 -0.578428 230 202 199 
141.362 149.593 863.5 0.645745 0.525364 -0.554081 230 202 199 
141.54 148.848 859.2 -0.89502 0.178867 -0.408591 230 202 199 
142.208 148.623 857.9 0.591462 -0.69672 -0.405899 230 202 199 
143.689 149.246 861.5 0.63458 -0.698651 -0.330447 229 201 198 
144.725 149.402 862.4 0.401123 0.364102 -0.840554 229 201 198 
145.628 149.42 862.5 -0.320356 0.824431 -0.466567 229 201 198 
145.988 148.883 859.4 -0.821807 0.449556 -0.350045 227 202 198 
146.204 148.207 855.5 0 0 0 227 202 198 
146.619 147.739 852.8 0 0 0 227 202 198 
147.27 147.514 851.5 0 0 0 227 202 198 
148.754 148.12 855 0 0 0 228 203 199 
149.964 148.45 856.9 0.88917 -0.314638 -0.332235 228 203 199 
151.443 149.039 860.3 0.659847 0.0202324 -0.751128 229 204 200 
151.672 148.398 856.6 -0.990359 -0.133173 -0.0381318 230 205 201 
152.588 148.432 856.8 0 0 0 232 206 207 
153.235 148.207 855.5 0 0 0 232 206 207 
153.321 147.445 851.1 0 0 0 233 207 208 
153.67 146.942 848.2 0 0 0 233 207 208 
156.6 148.9 859.5 -0.268602 -0.932732 -0.240551 236 210 211 
157.153 148.588 857.7 -0.0672156 -0.903911 -0.422406 236 210 211 
158.532 149.056 860.4 0.582299 -0.693709 -0.423905 237 211 212 
158.897 148.571 857.6 -0.725346 -0.0928032 -0.6821 238 212 213 
160.412 149.16 861 0.0807063 -0.975559 -0.204378 240 214 215 
160.978 148.865 859.3 -0.571378 0.463707 -0.677128 241 215 216 
161.559 148.588 857.7 -0.530806 0.702009 -0.474794 241 217 217 
162.213 148.38 856.5 -0.865219 0.427821 -0.261467 241 217 217 
164.14 149.333 862 0 -0.530321 -0.847797 241 220 219 
165.025 149.333 862 -0.864247 -0.18789 -0.466663 242 221 220 
165.776 149.212 861.3 -0.491458 -0.830525 -0.2621 242 222 221 
167.667 150.113 866.5 0 0 0 242 222 221 
167.857 149.489 862.9 -0.760245 0.625057 -0.177007 243 222 221 
168.137 148.952 859.8 -0.912708 0.377773 -0.155732 243 222 221 
168.254 148.276 855.9 -0.330714 0.425416 -0.842407 243 222 221 
169.845 148.9 859.5 0.317369 0.271702 -0.908546 243 222 221 
170.191 148.432 856.8 -0.953293 0.267473 -0.140326 245 224 223 
172.03 149.264 861.6 -0.309008 -0.941839 -0.132109 244 223 222 
172.795 149.16 861 -0.0442757 -0.975819 -0.214047 243 222 221 
173.699 149.177 861.1 0.366091 -0.839209 -0.402127 242 221 220 
174.787 149.35 862.1 0.490925 -0.449813 -0.746097 244 220 218 
175.896 149.541 863.2 0.194561 -0.863017 -0.466206 244 220 218 
176.824 149.576 863.4 -0.206384 -0.978129 -0.0258606 243 219 217 
177.526 149.42 862.5 -0.10538 -0.994418 -0.00527825 242 218 216 
178.453 149.454 862.7 -0.662505 -0.630418 -0.404549 240 216 214 
178.924 149.108 860.7 -0.860956 -0.428333 -0.274382 240 216 214 
179.139 148.554 857.5 0.0790295 -0.68969 -0.719779 241 217 215 
180.986 149.35 862.1 0.657676 0.425192 -0.621832 240 216 214 
181.787 149.281 861.7 -0.389565 0.790696 -0.47227 238 217 214 
182.036 148.761 858.7 -0.572264 0.792467 -0.210973 239 218 215 
182.088 148.086 854.8 0.82233 -0.11528 -0.557211 240 219 216 
183.351 148.398 856.6 0.581548 0.173078 -0.794887 240 219 216 
183.93 148.155 855.2 -0.601301 0.769289 -0.215944 242 221 218 
186.538 149.541 863.2 -0.401248 -0.91262 -0.0782572 243 222 219 
187.185 149.35 862.1 -0.785806 -0.612594 -0.0850677 244 223 220 
187.438 148.848 859.2 0.568208 -0.700973 -0.431018 244 223 220 
189.285 149.61 863.6 0.889661 -0.308676 -0.336486 248 224 224 
189.16 148.813 859 0.245853 -0.859827 -0.447497 249 225 225 
190.131 148.883 859.4 0.661583 -0.590718 -0.461909 250 226 226 
191.525 149.281 861.7 -0.186503 0.800874 -0.569049 250 226 224 
192.12 149.056 860.4 -0.539344 0.759378 -0.363941 250 226 224 
192.353 148.554 857.5 -0.876002 0.153911 -0.45709 250 226 222 
193.324 148.623 857.9 0.827786 -0.28674 -0.482235 250 226 222 
195.111 149.316 861.9 0.325677 0.642685 -0.693463 250 226 222 
195.223 148.727 858.5 -0.977385 0.110132 -0.180524 249 225 223 
195.557 148.311 856.1 -0.723737 -0.689818 0.0188614 249 225 223 
196.299 148.207 855.5 0 0 0 249 225 223 
197.062 148.12 855 0.849793 -0.350927 -0.393322 250 225 221 
198.612 148.623 857.9 0.681873 -0.559221 -0.47151 250 225 221 
201.237 149.922 865.4 -0.60828 0.766258 -0.206986 251 223 219 
201.542 149.489 862.9 -0.676527 0.700647 -0.226725 250 222 218 
201.561 148.848 859.2 -0.260114 -0.935926 -0.237451 249 221 217 
202.844 149.143 860.9 0.695872 -0.376133 -0.61179 248 220 217 
204.249 149.524 863.1 0.89249 -0.203957 -0.402322 248 220 217 
206.182 150.286 867.5 0.735133 -0.392917 -0.552444 248 220 217 
207.264 150.424 868.3 0.276948 -0.756303 -0.59271 248 220 217 
206.933 149.541 863.2 0.484678 0.648326 -0.587164 248 220 217 
208.109 149.749 864.4 0.762966 -0.490265 -0.421335 248 220 217 
209.263 149.939 865.5 0.719791 -0.54029 -0.435875 248 220 217 
210.2 149.974 865.7 -0.682047 0.635022 -0.362709 248 220 217 
210.602 149.628 863.7 -0.11635 -0.289958 -0.949941 249 219 217 
212.714 150.494 868.7 0.557142 0.485531 -0.673686 249 219 217 
212.893 149.991 865.8 -0.88231 0.445907 -0.150652 249 219 217 
213.14 149.541 863.2 -0.472802 0.784512 -0.401247 249 219 217 
213.928 149.472 862.8 -0.142626 0.88915 -0.434822 251 221 219 
217.329 151.221 872.9 -0.776373 0.609587 -0.160152 250 220 218 
217.526 150.736 870.1 0.752051 -0.121535 -0.647803 249 219 217 
219.323 151.36 873.7 0.284948 0.55734 -0.779857 249 219 217 
219.767 151.048 871.9 -0.663849 0.698767 -0.266511 249 219 217 
220.308 150.806 870.5 -0.296632 0.765561 -0.570899 249 219 217 
221.279 150.858 870.8 0.217133 -0.508803 -0.83305 249 219 217 
222.607 151.152 872.5 0.423565 -0.891618 -0.16003 247 217 215 
224.298 151.689 875.6 0.513652 -0.842926 -0.160117 247 217 215 
230.219 152.036 877.6 0 0 0 246 215 213 
273.944 159.104 918.4 0 0 0 250 216 214 
275.845 159.658 921.6 0 0 0 250 219 217 
279.014 160.94 929 -0.0389756 0.550635 -0.833836 249 219 217 
279.547 160.698 927.6 -0.914191 0.315649 -0.254207 249 219 217 
279.653 160.213 924.8 -0.565767 0.764961 -0.307801 249 219 217 
280.512 160.161 924.5 0.0141018 0.90521 -0.424731 248 218 216 
284.019 161.616 932.9 0 0 0 239 209 207 
283.053 160.524 926.6 -0.80355 0.458996 -0.378985 233 203 201 
283.79 160.403 925.9 0.387899 0.315875 -0.865885 217 187 185 
284.034 160.005 923.6 -0.471981 0.835767 -0.280585 184 165 161 
286.865 161.061 929.7 0 0 0 175 162 156 
97.0869 153.408 880.3 0 0 0 151 122 116 
97.4347 152.536 875.3 -0.503768 0.779979 -0.371281 159 132 125 
98.1317 152.223 873.5 -0.164804 0.330564 -0.929283 166 139 132 
99.029 152.223 873.5 0.309881 -0.12953 -0.941911 171 143 139 
99.9263 152.223 873.5 -0.0158866 0.8147 -0.579665 173 145 141 
100.962 152.432 874.7 -0.125958 0.786675 -0.604382 177 149 146 
102.012 152.658 876 -0.450223 0.360102 -0.817084 181 153 150 
102.665 152.292 873.9 -0.565932 0.585889 -0.580047 185 157 156 
103.219 151.787 871 -0.568632 0.748776 -0.340576 186 158 157 
104.413 152.223 873.5 -0.935929 0.0972706 -0.338489 190 161 163 
104.756 151.421 868.9 -0.868591 0.338649 -0.361754 192 163 165 
105.235 150.829 865.5 -0.257226 0.257146 -0.93151 198 172 171 
106.455 151.299 868.2 0.567287 -0.0284691 -0.823028 198 173 169 
107.199 151.09 867 -0.876874 0.156791 -0.454433 202 177 173 
107.641 150.463 863.4 -0.700381 -0.512165 -0.497145 205 180 176 
108.616 150.585 864.1 0.635808 -0.260049 -0.726721 207 182 178 
109.934 151.177 867.5 0.0371309 -0.245319 -0.968731 207 182 178 
110.289 150.445 863.3 -0.5397 0.68687 -0.486758 210 185 181 
111.536 150.933 866.1 0.226868 0.366304 -0.902415 211 186 182 
111.998 150.358 862.8 -0.867351 0.436382 -0.239317 215 187 186 
112.334 149.626 858.6 -0.828005 0.254559 -0.499608 216 188 187 
113.915 150.55 863.9 -0.0473369 0.424212 -0.904325 218 190 189 
114.696 150.41 863.1 -0.586418 0.716887 -0.377077 220 192 191 
115.302 150.044 861 -0.178388 0.817178 -0.548086 220 192 191 
116.497 150.445 863.3 0.068528 -0.698861 -0.711967 222 194 193 
117.085 150.062 861.1 -0.785682 -0.609891 -0.103616 223 195 194 
117.791 149.835 859.8 -0.574466 0.573123 -0.584396 224 196 195 
118.55 149.678 858.9 -0.512997 0.775684 -0.367625 222 196 195 
120.308 150.776 865.2 -0.917138 0.0460188 -0.395904 222 198 198 
121.029 150.567 864 -0.65834 0.619538 -0.427506 223 199 199 
121.536 150.097 861.3 -0.676271 0.689547 -0.259195 224 200 200 
122.051 149.644 858.7 -0.310371 0.0207135 -0.95039 224 200 200 
123.277 150.062 861.1 0.682507 -0.652943 -0.328406 225 201 201 
124.06 149.94 860.4 -0.885308 -0.166714 -0.434092 225 201 201 
124.843 149.818 859.7 -0.938329 -0.175406 -0.297947 225 201 201 
125.272 149.278 856.6 -0.864194 0.43212 -0.25776 226 200 199 
125.77 148.824 854 -0.975876 0.076235 -0.204584 226 200 199 
127.744 150.114 861.4 -0.965282 -0.17835 -0.190848 227 201 200 
128.241 149.661 858.8 -0.641544 -0.758004 -0.11769 228 202 201 
129.108 149.644 858.7 0.0718535 -0.994664 -0.0740326 228 202 201 
130.46 150.184 861.8 0 0 0 229 203 202 
130.354 149.051 855.3 0.582424 0.468187 -0.664517 230 204 203 
131.954 149.87 860 0.0811865 0.11017 -0.990591 231 205 204 
132.467 149.452 857.6 -0.917522 0.161927 -0.363226 233 205 204 
132.633 148.65 853 0.943322 -0.0861522 -0.320501 233 205 204 
134.198 149.417 857.4 -0.0793975 0.872558 -0.482015 233 205 204 
134.952 149.278 856.6 0.643224 -0.0618238 -0.763178 233 205 204 
136.419 149.922 860.3 0.764456 -0.141306 -0.628999 233 205 204 
137.271 149.888 860.1 -0.270211 0.690543 -0.670923 233 205 204 
138.251 149.992 860.7 -0.396098 0.55477 -0.731667 233 205 204 
138.812 149.644 858.7 -0.736339 0.514541 -0.439377 233 205 204 
139.58 149.522 858 -0.801574 -0.465337 -0.375422 233 205 202 
141.46 150.585 864.1 0.755648 0.282657 -0.590848 233 205 202 
141.409 149.591 858.4 -0.0755826 0.180535 -0.98066 233 205 202 
141.876 149.156 855.9 -0.708698 0.479368 -0.517642 233 205 202 
142.922 149.33 856.9 0.763561 -0.531982 -0.366018 234 206 203 
144.155 149.696 859 -0.454115 -0.74423 -0.489797 234 206 203 
144.362 148.999 855 -0.761104 0.524232 -0.38197 234 206 203 
146.124 149.905 860.2 -0.688529 0.50148 -0.523876 230 205 201 
147.161 150.062 861.1 0.534218 0.475792 -0.698737 230 205 201 
147.788 149.8 859.6 0 0 0 230 205 201 
148.688 149.818 859.7 -0.56622 -0.804818 -0.177939 230 205 201 
149.363 149.609 858.5 0.324776 -0.900279 -0.28986 231 206 202 
150.63 149.992 860.7 0.451198 -0.875004 -0.175467 231 206 202 
151.848 150.323 862.6 0.7758 -0.386407 -0.498823 231 206 202 
152.964 150.55 863.9 0.425559 0.756101 -0.497203 231 206 202 
154.03 150.724 864.9 0 0 0 232 206 207 
154.936 150.741 865 0 0 0 232 206 207 
155.141 150.079 861.2 0 0 0 233 207 208 
155.21 149.295 856.7 0 0 0 234 208 209 
155.963 149.173 856 0.457013 -0.878015 -0.142231 236 210 211 
157.19 149.504 857.9 0.211579 -0.913945 -0.346323 237 211 212 
157.998 149.434 857.5 0.518622 -0.822349 -0.234037 239 213 214 
159.268 149.8 859.6 -0.320393 -0.766142 -0.557112 240 214 215 
159.61 149.295 856.7 0.466237 -0.816605 -0.340265 241 215 216 
160.64 149.434 857.5 0.708411 -0.607759 -0.358864 242 216 217 
162.331 150.184 861.8 0.358521 0.501616 -0.787302 243 219 219 
162.8 149.8 859.6 -0.575107 0.766837 -0.28498 245 221 221 
163.15 149.312 856.8 -0.644028 0.735975 -0.208733 244 223 222 
165.006 150.201 861.9 -0.977604 0.073703 -0.197124 244 223 222 
165.237 149.609 858.5 -0.932248 -0.323191 -0.162668 244 224 223 
165.887 149.4 857.3 0.0239995 -0.625915 -0.779522 245 225 224 
166.865 149.487 857.8 -0.228462 0.718427 -0.657014 245 224 223 
168.841 150.463 863.4 -0.641237 0.744235 -0.186895 246 225 224 
168.706 149.556 858.2 0.334914 0.12262 -0.934236 247 226 225 
169.983 149.905 860.2 0.553918 -0.0687446 -0.829728 248 227 226 
170.43 149.522 858 -0.973347 0.197747 -0.116154 246 225 224 
170.612 148.912 854.5 -0.82051 -0.332001 -0.465338 246 225 224 
171.912 149.278 856.6 0.511267 -0.829022 -0.226558 246 225 224 
173.195 149.626 858.6 0.264098 -0.942114 -0.206574 246 225 224 
174.32 149.835 859.8 0.380172 -0.903098 -0.199706 248 224 224 
175.489 150.079 861.2 0.0122635 -0.966533 -0.25625 248 224 224 
176.128 149.87 860 -0.404176 -0.905559 -0.128858 247 223 223 
176.682 149.591 858.4 -0.389942 -0.909535 -0.143844 246 222 222 
177.419 149.469 857.7 -0.256932 -0.847136 -0.46513 245 221 221 
177.947 149.173 856 -0.550374 0.61602 -0.563567 244 220 220 
178.763 149.121 855.7 -0.861076 -0.334866 -0.38264 243 219 219 
181.049 150.288 862.4 0.676532 -0.437816 -0.592133 243 219 219 
181.808 150.184 861.8 -0.0548445 -0.909694 -0.411641 242 221 220 
182.8 150.271 862.3 -0.754187 0.159556 -0.636981 243 222 221 
183.217 149.888 860.1 -0.769688 0.513482 -0.379365 244 223 222 
183.951 149.766 859.4 0.178214 0.813202 -0.554024 245 224 223 
184.618 149.591 858.4 -0.571 0.781751 -0.25065 247 226 225 
184.722 148.964 854.8 -0.842217 0.526501 -0.116049 247 226 225 
186.534 149.713 859.1 -0.982868 0.122129 -0.138038 245 224 221 
186.849 149.26 856.5 -0.598611 0.65355 -0.463181 246 225 222 
189.088 150.341 862.7 0.348688 -0.809496 -0.47237 250 225 228 
189.006 149.574 858.3 -0.950652 0.191533 -0.24408 250 225 228 
189.976 149.644 858.7 0.810073 -0.321735 -0.490172 251 227 227 
191.636 150.253 862.2 0.769075 -0.212224 -0.602897 252 228 228 
192.455 150.201 861.9 -0.831883 0.232441 -0.503926 251 227 227 
192.936 149.888 860.1 -0.842536 0.480518 -0.243384 251 227 225 
193.256 149.452 857.6 0.6606 0.203287 -0.722691 251 227 225 
195.201 150.271 862.3 0.814655 -0.389764 -0.429443 251 227 223 
196.201 150.358 862.8 -0.79286 -0.318433 -0.51959 250 226 224 
197.795 150.898 865.9 0 0 0 250 226 224 
198.02 150.393 863 -0.765604 -0.643069 0.0176869 250 226 224 
198.261 149.905 860.2 -0.839648 -0.542676 0.0222327 251 226 222 
198.334 149.295 856.7 0.878009 -0.301195 -0.371997 250 225 221 
200.168 150.009 860.8 0.446783 -0.046432 -0.893437 252 224 220 
202.36 150.985 866.4 -0.640629 0.729459 -0.239758 251 223 219 
202.781 150.637 864.4 -0.591546 0.341579 -0.730341 250 222 218 
204.211 151.038 866.7 -0.17355 -0.969144 -0.175042 249 221 218 
204.486 150.585 864.1 0.80806 -0.0369263 -0.587942 249 221 218 
206.039 151.073 866.9 0.565599 -0.183867 -0.803922 249 221 218 
206.524 150.776 865.2 -0.590554 -0.789927 -0.165107 249 221 218 
207.077 150.532 863.8 0.429126 -0.848233 -0.310406 249 221 218 
209.072 151.334 868.4 0.795535 -0.552511 -0.248707 249 221 218 
208.634 150.375 862.9 0.879707 -0.299323 -0.369487 249 221 218 
210.686 151.212 867.7 0.624867 0.35293 -0.696407 249 219 217 
211.09 150.863 865.7 -0.341967 0.85989 -0.379009 249 219 217 
213.84 152.188 873.3 -0.173051 0.648972 -0.74087 249 219 217 
214.417 151.961 872 -0.688018 0.676714 -0.262087 249 219 217 
213.363 150.585 864.1 -0.0358557 0.786723 -0.616264 249 219 217 
214.548 150.794 865.3 0.266869 0.785793 -0.557951 252 222 220 
213.943 149.748 859.3 0 0 0 251 221 219 
216.201 150.707 864.8 0 0 0 250 220 218 
219.449 152.345 874.2 0.665722 -0.0167284 -0.746012 250 220 218 
220.145 152.205 873.4 -0.726703 0.570939 -0.382009 250 220 218 
220.486 151.822 871.2 -0.768387 0.518077 -0.375736 250 220 218 
221.203 151.7 870.5 -0.706589 0.265083 -0.656096 250 220 218 
221.74 151.456 869.1 0.157718 -0.600341 -0.784038 247 217 215 
222.812 151.578 869.8 0.672452 -0.393902 -0.626618 247 217 215 
224.451 152.083 872.7 0.479786 -0.757204 -0.443223 246 216 214 
273.271 160.762 922.5 -0.310559 -0.517158 -0.797559 246 212 210 
283.114 161.511 926.8 -0.99643 0.0709387 -0.0457685 240 210 208 
283.208 161.023 924 0.64838 -0.518613 -0.557354 226 196 194 
285.541 161.807 928.5 0.45497 0.393366 -0.798915 196 177 171 
286.433 161.773 928.3 -0.121612 0.732289 -0.670047 178 163 156 
100.384 153.821 877.5 -0.01158 0.928988 -0.369928 169 141 137 
101.274 153.804 877.4 -0.357579 0.862865 -0.357214 174 146 143 
101.593 152.927 872.4 -0.896559 -0.255913 -0.36151 178 150 147 
102.336 152.699 871.1 0.134197 -0.789874 -0.598407 183 155 154 
103.646 153.313 874.6 0.127747 -0.309689 -0.942217 184 156 155 
104.401 153.103 873.4 -0.694091 0.289286 -0.659205 188 159 161 
104.852 152.454 869.7 -0.938334 0.165027 -0.3038 190 161 163 
105.515 152.121 867.8 -0.0966318 0.855866 -0.50809 192 166 165 
106.578 152.366 869.2 0.232511 0.845507 -0.480684 193 168 164 
107.397 152.261 868.6 -0.297912 0.834158 -0.464143 197 172 168 
108.326 152.314 868.9 -0.681583 0.454461 -0.573506 199 174 170 
108.993 151.998 867.1 -0.697536 0.575697 -0.426634 203 178 174 
109.554 151.542 864.5 0.11167 -0.277292 -0.954274 204 179 175 
110.608 151.77 865.8 -0.134408 0.320916 -0.937522 206 181 177 
111.472 151.735 865.6 -0.129779 0.609939 -0.781749 209 184 180 
112.192 151.507 864.3 -0.913369 0.358804 -0.192398 215 187 186 
112.439 150.648 859.4 -0.833676 0.491217 -0.25237 216 188 187 
113.876 151.385 863.6 0.782563 0.322654 -0.532437 218 190 189 
114.856 151.507 864.3 0.195692 0.696505 -0.690351 220 192 191 
115.57 151.279 863 -0.592928 0.713231 -0.373815 220 192 191 
116.254 151.017 861.5 -0.567066 0.632251 -0.527916 222 194 193 
116.853 150.648 859.4 -0.86598 0.366482 -0.340248 223 195 194 
118.64 151.805 866 -0.299995 -0.953668 -0.022796 224 196 195 
119.24 151.437 863.9 -0.731149 0.534234 -0.424281 222 196 195 
119.752 150.964 861.2 -0.921993 0.0229597 -0.386526 224 200 200 
120.679 151.017 861.5 0.379372 -0.894026 -0.238315 225 201 201 
121.733 151.227 862.7 -0.895239 0.0523947 -0.442495 225 201 201 
122.264 150.789 860.2 -0.864124 0.401804 -0.303056 226 202 202 
123.005 150.613 859.2 0.836109 -0.255491 -0.485434 226 202 202 
124.306 151.122 862.1 -0.648097 0.258787 -0.71624 226 202 202 
124.726 150.561 858.9 -0.827597 -0.323766 -0.45854 226 202 202 
125.77 150.754 860 -0.71101 -0.154093 -0.68609 226 202 202 
126.373 150.421 858.1 -0.34594 0.436657 -0.830456 227 203 203 
127.744 150.999 861.4 -0.225802 -0.961163 -0.158681 228 204 204 
128.36 150.683 859.6 -0.914785 -0.355008 -0.192714 228 204 204 
128.417 149.719 854.1 0.0975844 -0.994742 -0.0310584 229 205 205 
129.445 149.895 855.1 0.213049 -0.975856 -0.0481078 229 205 205 
130.415 150 855.7 0.887974 -0.336143 -0.313862 230 206 206 
131.801 150.578 859 0.707143 -0.636341 -0.308252 231 207 207 
132.745 150.648 859.4 -0.0620381 -0.925961 -0.372488 234 206 205 
134.358 151.472 864.1 0 0 0 234 206 205 
134.902 151.087 861.9 -0.715005 0.683945 -0.144872 234 206 205 
135.063 150.28 857.3 -0.773758 0.600475 -0.201811 234 206 205 
135.499 149.789 854.5 -0.774449 0.567645 -0.279298 234 206 205 
136.09 149.474 852.7 -0.694023 0.662302 -0.282291 234 206 205 
137.705 150.28 857.3 0.217826 -0.908399 -0.356881 234 206 205 
138.634 150.333 857.6 -0.769812 0.230947 -0.595023 234 206 205 
139.157 149.947 855.4 -0.908947 0.30303 -0.286335 235 207 204 
139.676 149.562 853.2 -0.968411 0.0673785 -0.240084 235 207 204 
140.914 149.947 855.4 0.864649 -0.45033 -0.222677 235 207 204 
142.589 150.789 860.2 0.353412 0.353059 -0.866284 236 208 205 
143.056 150.35 857.7 -0.244488 0.53108 -0.811283 236 208 205 
144.339 150.771 860.1 0.589841 -0.204037 -0.781317 236 208 205 
144.548 150.07 856.1 -0.670632 -0.17566 -0.720692 236 208 205 
145.563 150.21 856.9 -0.781015 -0.419021 -0.463074 233 209 205 
145.982 149.737 854.2 -0.898407 -0.434594 -0.0631932 233 209 205 
